95.4701 85.1144 23.3928
154.628 77.5295 48.1102
116.299 87.8386 29.0723
148.157 102.978 4.90061
144.67 105.727 3.24085
154.169 102.78 13.3135
148.373 105.648 7.80377
106.217 84.6762 10.8534
116.742 142.687 37.3459
-113.595 119.615 362.816
130.225 80.9032 58.3083
114.956 83.0396 32.0427
115.307 86.107 24.4109
109.13 122.884 29.6836
7.41584 83.256 132.498
127.681 120.76 2.52105
29.465 76.4967 90.5973
108.53 134.473 27.7135
108.426 134.46 26.9618
112.202 134.936 21.2868
102.205 107.685 7.60973
92.0006 90.7727 32.6778
112.897 127.096 10.3993
94.0119 90.5437 29.5463
717.592 -109.63 1170.16
-192.612 141.127 507.774
107.522 134.347 27.2218
128.655 111.268 9.78664
118.789 145.881 29.1398
-179.412 137.491 483.44
104.097 106.591 6.72006
102.267 106.63 10.2965
122.057 118.548 23.549
157.379 108.169 11.1803
110.904 119.941 26.6898
144.176 110.104 2.82583
165.614 108.087 22.2966
120.689 65.2393 43.8754
106.481 81.0832 21.0832
121.58 144.832 31.7619
94.2287 83.2805 12.3631
104.955 92.1446 12.3177
138.972 106.036 3.43346
76.2199 92.1707 14.8006
66.2407 126.596 49.8029
98.7164 92.7598 3.01001
-510.117 225.077 1151.29
176.4 45.44 198.307
-664.251 266.274 1457.32
83.3658 140.602 51.6376
112.989 80.0639 33.1689
129.329 106.198 4.12052
88.8308 145.424 61.2001
152.444 110.088 11.3743
92.5281 71.4348 29.7767
440.033 -9.05296 647.073
127.158 107.444 8.41546
106.233 68.6909 62.8268
108.764 144.112 44.0483
81.9551 133.746 59.5954
141.038 99.323 38.903
130.418 106.844 5.84731
103.342 91.6165 15.3743
99.6776 101.239 20.5099
89.2501 72.4749 29.3134
81.3518 139.035 54.9454
114.352 66.5717 75.2254
128.735 77.9306 45.312
113.128 90.6152 32.4278
113.805 93.994 2.15358
144.608 88.2499 30.3513
113.723 109.23 12.5731
54.6668 96.4678 21.6144
83.3347 146.501 54.2012
116.334 105.889 6.45373
116.027 137.838 22.5653
91.4809 103.068 10.523
140.223 88.682 23.6496
133.314 92.8468 29.0665
100.597 104.8 19.8285
85.8902 103.042 20.9516
81.5464 140.27 55.6191
150.346 91.5975 61.1376
171.848 105.149 40.5805
78.3432 94.4237 13.7781
139.984 76.1865 64.3015
80.2592 129.179 32.8162
49.4607 97.0055 32.3486
110.004 107.082 29.0035
114.015 137.56 25.6824
150.355 108.676 14.0339
110.861 91.8956 3.13877
145.13 101.193 7.40948
124.353 117.544 2.02195
63.332 114.451 45.2903
105.954 139.423 37.5526
139.046 95.0794 37.0764
111.356 123.907 30.6847
63.2496 97.135 4.51844
118.493 118.995 13.2743
137.145 92.6756 40.8049
-433.212 205.042 1031.11
49.5336 97.5111 40.0915
88.1313 98.6987 20.3467
80.6219 84.9067 39.7879
-216.298 147.377 559.632
113.414 105.186 1.3825
126.611 111.356 5.79135
101.7 67.1918 19.5477
88.0486 103.02 10.3636
87.5344 124.936 49.265
-52.019 101.979 242.616
117.994 79.0011 21.9582
86.8598 98.7874 22.6922
107.994 95.1206 14.662
109.359 136.069 33.484
94.1564 106.093 15.7127
126.392 93.5537 22.3214
147.924 88.1589 32.9185
89.6905 102.947 7.57294
101.352 134.999 44.9456
104.88 115.975 40.8243
134.814 121.568 13.1496
98.0002 92.9768 17.1316
117.309 124.319 21.4869
125.173 96.3841 23.9197
127.045 111.116 6.39251
85.5601 86.3187 50.0826
96.4575 134.344 51.9595
60.2249 96.4489 18.766
133.501 89.7024 38.2397
110.828 78.1668 19.5529
99.8927 116.873 24.8773
141.186 94.9295 39.415
92.7899 109.37 22.2423
286.394 29.0017 347.538
335.384 6.1559 492.222
87.7202 93.5422 1.63965
105.083 141.07 48.2764
86.9738 147.295 47.5245
116.526 89.4694 11.5163
82.3658 72.9674 25.891
88.8448 98.9495 24.6993
117.957 106.938 16.0461
115.999 91.069 13.4082
119.628 57.9223 54.3671
123.411 110.736 9.80273
116.511 112.74 18.9593
112.151 110.725 7.12425
120.056 108.024 8.22849
114.108 96.8864 23.3553
63.0132 129.099 55.7774
84.6357 119.215 44.676
118.946 128.367 19.2594
158.401 105.625 15.1159
113.474 66.6552 41.7815
78.3709 63.2809 7.61306
129.49 107.907 6.14364
87.4658 82.0974 19.2442
141.156 83.0469 51.1117
116.954 128.19 22.5861
143.128 119.025 11.2262
109.789 112.666 28.8015
122.218 124.659 15.0435
75.0074 85.7939 48.6211
145.192 115.033 3.01368
102.884 98.061 19.9723
156.396 115.505 15.6893
-101.341 116.141 339.467
139.724 113.148 17.2154
127.018 137.517 15.0798
108.815 136.841 32.475
111.117 118.762 1.35518
118.468 133.974 36.6722
77.6621 130.208 36.6454
85.5175 96.8772 32.2283
94.8541 88.3296 39.7587
131.559 115.579 22.7238
130.358 113.038 3.0089
149.641 122.323 6.88661
117.377 84.3062 17.7785
87.8391 141.417 45.7983
80.3754 134.261 35.7478
117.556 70.8396 38.7484
107.381 140.769 50.0821
113.344 112.572 2.60434
184.253 59.8738 265.279
108.267 129.379 15.415
101.49 111.507 20.7139
153.459 93.4245 52.1412
-154.803 130.82 435.423
101.256 110.41 19.7171
132.755 112.772 7.92998
104.405 87.1274 24.7811
116.933 127.293 16.3527
91.1723 98.8532 1.3209
110.953 86.6472 18.9839
128.553 94.355 2.07083
131.91 101.103 5.48296
155.005 122.597 14.7869
155.449 104.682 7.35832
165.688 63.4121 226.076
115.643 136.046 30.3262
144.157 105.737 2.72298
86.9258 141.251 47.5092
63.8427 116.562 42.2028
232.148 34.7854 256.873
94.7878 96.1946 6.0097
121.55 114.032 22.9579
151.227 117.537 3.80987
120.163 128.117 5.08636
101.498 99.2532 7.73051
-157.58 131.59 440.425
113.814 112.575 35.1609
118.302 136.39 27.3451
100.475 97.8575 30.394
96.1533 96.6463 20.8435
64.2146 127.331 59.4077
99.1195 74.787 4.50704
128.644 125.594 12.6326
90.4893 97.3969 27.9238
99.1419 95.761 2.92272
114.254 116.988 9.4437
64.2374 127.333 59.2333
127.121 120.743 13.5325
101.939 96.5224 9.48042
152.052 111.524 5.28729
-16.2067 93.136 195.859
-94.6634 114.248 326.743
43.551 77.2286 95.4488
115.3 101.837 28.9415
135.411 126.079 2.44477
78.4119 145.428 60.672
92.5747 98.4079 16.2815
88.5659 113.984 18.5022
63.7698 116.368 46.7449
125.319 128.996 25.9232
102.83 143.066 52.6234
86.46 102.796 34.1613
126.618 110.302 3.31033
70.2644 87.9238 19.4702
110.358 126.738 26.7393
-7.85967 89.0593 169.068
-92.4716 113.596 323.804
104.158 126.215 35.6714
62.6619 99.3622 39.4893
119.112 120.895 11.5705
68.0949 132.035 46.6124
104.749 107.591 12.4936
60.1681 117.592 47.3396
129.539 93.1245 11.4258
112.883 110.725 7.01086
107.58 103.325 18.9221
88.6341 119.243 49.0572
91.988 94.2224 22.2532
131.572 93.8779 35.5694
-34.5969 96.3035 218.462
85.2971 70.244 5.28457
96.0021 103.439 13.8094
74.3864 115.179 23.9066
141.347 88.4277 38.5608
118.387 79.1029 33.5016
1098.44 -211.373 1667.92
137.592 107.912 2.91108
48.3435 80.587 23.9117
111.454 81.9096 7.59619
73.2479 98.542 20.8841
103.342 126.98 41.7396
65.1463 132.03 61.9657
110.584 129.779 16.6823
155.097 89.4623 23.2519
132.001 78.8622 24.2331
128.482 121.379 1.83355
158.89 89.1244 28.5134
144.549 90.9006 5.22149
143.134 77.0712 116.917
71.8037 83.9379 11.6881
97.4962 119.696 36.1109
77.9276 82.8759 1.25632
68.4892 97.2611 0.972366
102.614 86.8009 86.6115
48.2383 80.4502 25.6617
132.2 114.216 8.29792
70.3105 105.602 37.9573
90.0936 97.5842 6.31357
-200.512 143.482 517.547
101.181 109.336 2.88842
93.3714 85.245 21.2564
139.492 114.341 2.73393
49.9115 95.9052 35.9536
96.7023 115.314 23.6473
68.284 75.5244 10.6066
54.1689 102.738 47.3985
116.967 143.19 36.528
107.159 135.775 35.4496
154.528 73.4482 113.474
143.171 91.684 37.0822
68.8892 104.771 38.2734
92.3074 143.375 47.8314
120.188 143.72 31.5569
70.9452 104.853 21.9336
108.042 102.85 3.59604
75.2152 77.8093 12.7648
116.424 120.22 28.7156
94.2877 112.028 14.825
107.457 84.2388 39.7296
94.8529 85.9923 17.3305
80.3816 89.6661 39.0383
93.4058 94.8995 25.7409
121.582 102.302 25.5923
151.181 95.6455 16.2924
-316.297 174.271 744.82
120.584 103.661 12.5366
93.1353 87.5125 12.2938
65.514 107.329 40.9793
141.997 136.731 3.04417
104.683 71.6583 40.3522
101.731 115.449 15.9063
69.5326 110.539 36.7596
77.4329 106.541 27.8668
96.3648 130.395 35.1099
89.3922 99.5956 9.09252
94.8192 93.4497 23.5531
-49.6751 100.872 246.016
96.0833 112.043 11.7508
104.28 86.8444 25.7916
138.218 126.887 2.45983
151.29 51.9719 81.804
69.8222 106.733 40.9249
78.7437 105.583 15.215
124.708 92.2322 5.30244
118.816 103.722 14.398
110.907 110.16 6.75322
130.889 74.7871 143.52
129.768 89.0418 21.381
68.2556 128.558 42.9745
178.509 100.483 39.2504
152.041 99.4478 8.1165
67.1433 99.5798 1.37668
69.4952 130.889 46.249
118.643 131.873 18.9738
190.964 48.9481 157.636
128.487 94.4948 33.0644
118.676 89.0971 4.40844
153.994 87.4928 37.3696
146.76 102.289 21.401
96.3763 107.751 8.06964
135.24 87.3237 21.4987
77.4002 85.5642 23.7217
156.916 101.318 8.92395
72.2409 128.696 33.5173
92.7693 95.8595 1.45974
80.8293 121.177 26.345
65.1921 127.25 42.9677
68.567 127.635 37.5259
78.0424 120.995 31.9131
376.003 -4.54313 455.183
94.3636 114.721 20.5581
86.9256 113.42 46.9219
85.5515 144.091 42.6865
118.358 94.9457 20.5754
426.872 -22.8447 624.777
91.9051 85.4397 62.2706
155.754 87.3206 40.4293
55.9279 126.77 62.6536
83.4115 81.3379 45.2316
85.3922 87.3085 2.17014
290.604 37.0058 418.293
137.157 84.0142 7.70976
76.4789 110.315 34.8802
101.11 113.834 7.55482
90.0559 117.393 37.0997
106.519 129.46 35.4017
138.283 83.8778 9.07455
160.183 89.2856 33.7339
112.941 130.106 26.171
136.454 106.739 4.32311
140.024 73.2548 71.0468
-25.7452 93.6216 202.755
-162.034 133.098 446.422
77.9801 87.4543 32.7008
73.1084 132.284 42.193
52.5712 86.796 19.9792
133.778 135.768 13.8914
158.011 115.288 21.1164
162.738 87.1649 48.5738
66.4632 110.575 40.3247
106.419 123.718 14.3285
38.7991 71.959 54.6622
84.8581 131.311 37.9323
101.711 82.8111 79.9873
92.8515 91.6603 19.9164
99.691 96.3556 16.2491
85.575 99.8399 16.5974
-15.1631 90.4674 190.341
91.4817 103.939 42.6024
93.1865 114.611 29.6658
70.9617 132.882 50.5695
74.7468 88.7896 19.7095
86.4006 110.301 17.1578
118.159 130.631 18.4367
90.5186 118.736 38.816
86.8086 110.3 16.7846
127.476 96.7628 5.45055
110.842 100.585 13.6726
80.9328 81.7766 38.6213
90.6172 88.2135 41.5108
67.1357 122.07 45.2132
133.33 130.4 7.99058
747.459 -104.225 1136.97
156.223 101.477 6.69948
83.0209 123.957 38.9703
-127.456 123.402 385.562
71.7637 132.095 43.9775
74.424 118.302 22.3945
119.201 89.1129 19.438
119.629 128.428 16.9546
77.9201 86.6428 10.5898
103.78 108.72 15.4836
128.68 99.9455 19.4847
70.8198 96.918 16.4959
94.4144 120.134 33.7528
68.871 133.322 46.4441
72.5567 105.529 33.0661
107.198 133.14 42.7112
107.219 82.2533 42.4383
137.658 136.222 10.1233
137.026 130.742 2.42572
145.628 84.3669 37.2096
36.5648 74.7431 90.3476
68.4192 100.09 27.9641
132.469 82.3288 82.1251
67.1794 116.505 39.3298
69.3232 132.526 60.2455
92.5353 130.123 35.3815
134.214 102.23 17.0252
76.4127 90.634 3.96029
70.0951 108.618 33.0487
92.2362 119.612 32.215
2524.36 -541.632 4144
45.6096 83.7802 32.2988
113.017 141.127 46.5539
78.1151 89.4921 15.7319
72.3586 93.8781 18.3139
94.6478 119.662 13.4538
101.649 116.934 21.0498
104.681 117.04 16.7533
72.7785 133.03 54.9407
91.9416 129.859 30.9289
72.752 93.0689 1.56522
97.383 120.457 24.1625
82.5447 120.866 44.7876
101.952 120.711 17.1725
78.3469 86.2866 22.2257
82.5916 123.808 19.7296
158.435 84.6606 43.4038
-46.5331 99.9473 244.705
135.191 95.6441 9.65457
177.58 93.6657 50.2232
58.8988 121.145 53.511
88.6997 129.692 40.2842
105.021 98.2424 37.7978
-11.0015 87.9192 154.882
72.3697 108.589 28.9711
96.888 117.666 27.1621
101.492 131.131 20.2468
67.6281 122.589 55.4886
142.875 101.897 29.6415
-12.7516 88.48 158.745
60.6609 121.278 50.9408
151.006 136.117 4.23825
66.4676 126.24 42.1245
111.508 131.113 30.3843
69.7991 112.583 42.0898
171.53 84.9646 45.6927
58.5569 129.737 56.1141
69.3533 90.9703 1.40359
80.5246 82.4561 30.0012
73.6463 129.912 57.3203
70.6672 63.005 38.8492
121.803 95.7295 4.05849
139.332 88.2178 2.3592
67.2692 97.2354 23.9487
73.1759 129.853 58.1068
57.1184 121.011 57.5262
88.3083 118.114 31.9502
126.675 90.615 5.01254
119.836 95.8382 37.8617
154.619 84.0406 41.7428
72.1151 128.302 49.8267
92.8161 77.7155 12.6278
122.158 134.406 31.2659
85.4252 80.9239 31.5256
70.6418 99.322 5.13391
80.1748 81.8549 21.6914
79.4148 88.5412 4.19893
79.0116 119.114 38.307
111.329 146.452 43.5371
57.9729 113.794 49.8024
52.4376 93.1634 33.9949
159.388 81.3185 41.132
85.219 124.832 34.0717
73.0127 75.8862 47.656
90.1168 106.522 1.75495
78.291 120.598 50.6255
188.527 45.3039 149.137
166.211 89.8216 43.4723
60.3539 94.2641 28.2567
70.1086 122.341 44.6051
130.071 84.8618 3.12817
103.615 81.3126 50.0306
251.178 6.64745 275.394
76.1574 121.894 42.561
53.6097 95.0374 41.1933
129.899 122.881 27.7405
79.4076 88.5422 3.70896
84.8294 129.067 43.3743
84.9548 87.7843 15.3266
88.2898 125.778 25.9063
58.024 129.664 57.8238
79.9762 101.255 3.42953
127.537 79.3941 89.0104
62.5414 130.734 47.5735
96.5944 82.2676 39.0864
94.3975 121.612 24.3691
87.5702 129.373 38.9436
102.566 101.013 1.38512
138.759 96.0193 12.3518
64.9895 122.67 57.4594
124.979 129.628 20.212
138.306 134.721 21.6757
137.061 64.5406 157.604
129.277 97.6157 2.62781
131.481 135.499 17.505
92.9432 91.9001 38.0654
219.326 51.3104 295.18
88.9009 125.833 24.4594
142.027 68.4536 101.133
126.608 97.7793 2.88981
116.095 120.647 7.2601
100.738 121.213 7.00659
109.028 75.7796 39.5419
53.7501 95.3161 43.0238
73.4525 114.627 37.7255
79.9258 102.184 37.7653
102.276 116.743 4.37677
62.2381 90.8881 27.7535
152.621 90.9578 23.9023
63.985 82.9121 33.6756
111.182 83.4574 74.0484
167.657 106.648 18.2965
132.251 92.6609 5.36272
113.535 103.901 23.2913
123.088 114.038 8.89905
67.5366 129.653 44.0503
84.972 121.448 20.5654
86.6411 129.39 33.3153
81.5959 117.815 43.6678
76.5965 91.2388 3.64444
65.9437 89.8129 14.5264
70.6272 147.73 70.8768
92.4197 125.752 24.9531
60.1055 123.653 55.488
90.8954 129.363 29.4967
77.4152 135.163 48.3807
133.891 98.8932 6.9791
128.344 73.3132 115.977
94.9479 77.0358 22.8796
152.754 66.4348 122.457
153.216 96.1486 37.3013
166.197 78.9392 44.7778
-314.941 172.659 700.06
1516.9 -319.193 2434.58
141.342 117.477 21.7881
129.999 129.7 21.8943
-48.3583 100.359 238.189
58.6707 121.413 59.521
82.7438 115.764 24.3918
73.7681 92.9539 1.36978
72.2548 117.427 30.2935
112.243 128.451 38.027
134.171 135.814 15.2228
87.3996 116.48 11.9514
82.4185 122.345 34.1403
74.0219 79.9109 9.91836
72.4068 119.954 33.3529
68.8631 122.936 59.2166
76.9078 149.265 60.4947
165.198 55.1135 167.784
87.7906 116.152 18.4681
141.496 64.6572 150.971
74.2095 118.655 28.3419
68.2587 119.701 40.4322
88.959 131.823 32.5604
91.0078 116.885 40.6508
93.2504 90.873 32.4175
169.216 61.1736 196.354
110.78 83.6874 40.1514
65.4215 113.968 35.6726
133.954 90.4771 23.6475
131.48 96.1859 12.1551
