ply
format ascii 1.0
element vertex 1417
property float x
property float y
property float z
property uchar red
property uchar green
property uchar blue
end_header
118.291 87.2297 40.5735 82 71 69
106.786 100.054 42.3917 193 39 47
128.961 74.3878 6.45375 219 205 204
130.05 80.7839 53.1456 209 184 179
138.718 70.486 37.9363 50 36 35
121.647 77.0169 8.30527 72 61 67
123.135 77.1123 11.1138 39 28 34
74.9133 93.967 20.319 72 69 80
114.893 76.2809 10.3647 227 215 215
109.107 84.1621 21.7467 108 83 86
104.743 103.611 41.8 201 75 78
133.286 77.7448 14.9693 44 33 37
119.333 78.3418 7.53697 72 61 67
110.069 89.5904 31.0189 55 49 53
125.653 78.1187 24.4615 52 42 43
131.132 78.3091 44.1197 29 21 18
116.921 96.5858 52.6889 62 44 40
130.13 76.6054 39.3884 59 49 48
96.7702 92.4763 21.241 46 26 38
120.572 91.6245 50.9112 29 18 14
129.945 77.8886 67.2551 78 71 65
131.129 77.6702 44.676 37 29 26
107.59 99.3174 44.7056 186 41 48
106.436 88.7804 26.3607 31 20 26
131.161 77.0723 36.7128 87 77 76
85.3883 60.1322 7.75276 46 33 43
116.634 88.5011 29.1706 78 64 61
107.743 79.4045 5.78394 187 169 169
121.15 86.4358 37.8 30 12 8
85.6155 84.9233 13.9012 232 223 224
104.96 101.305 44.1056 183 59 57
138.351 75.491 26.3055 63 55 52
114.062 93.9495 50.3961 47 37 36
68.4529 88.6304 16.858 47 38 43
67.9413 93.1233 17.8 49 44 50
68.2117 71.2264 17.0873 231 175 174
89.5807 75.4355 12.0766 39 28 34
105.299 83.2683 17.8914 77 57 56
90.2827 73.431 13.7099 35 24 30
108.963 90.0304 25.3414 59 49 58
63.8693 94.0374 18.1484 77 74 81
121.179 85.6239 38.8607 42 25 18
121.546 79.874 4.49935 67 56 62
121.254 84.123 38.4489 72 58 57
125.182 82.603 36.2025 46 36 35
75.074 92.7491 18.6159 34 29 36
135.636 72.9414 43.2324 56 42 41
113.968 95.5403 48.0115 32 26 26
109.162 87.6309 27.7163 55 50 57
131.564 75.8902 36.9832 75 65 64
115.462 93.2083 53.7361 53 42 40
118.165 82.811 26.6749 31 22 27
116.352 82.3132 23.8688 66 52 51
97.4224 78.7136 10.2061 27 21 25
129.932 78.9132 12.7843 44 36 34
130.452 79.3731 36.6841 57 47 45
125.028 78.9587 14.5767 50 38 38
116.161 85.7422 19.8141 55 41 41
134.04 75.0247 46.3844 43 30 22
131.376 77.2383 26.5585 64 42 21
112.34 83.6138 23.1956 48 32 33
122.131 85.0635 42.2226 125 105 104
89.3991 71.9444 12.2973 54 42 44
118.704 86.8139 25.9102 28 18 19
112.19 85.7164 20.3623 47 35 37
125.585 81.6948 19.9155 73 63 62
133.883 77.4492 35.0348 56 46 44
94.2372 75.2699 13.0195 31 20 24
111.889 97.4872 48.5823 81 71 72
101.704 88.8825 19.4764 46 36 44
63.2029 77.8102 16.8492 74 62 72
125.594 81.2614 20.4691 70 60 61
97.1162 104.676 31.5848 177 21 32
126.126 81.0095 42.9938 32 20 20
108.447 82.9067 14.7046 26 17 22
118.639 93.6789 52.3664 42 28 27
107.046 75.5814 4.62201 200 184 184
120.488 86.5908 25.1784 68 56 56
94.3811 51.7179 5.30024 73 60 70
120.548 85.0336 26.6438 62 50 50
100.635 104.653 41.6132 192 49 55
122.458 85.9837 51.7714 174 157 149
101.612 104.023 41.4641 190 56 57
95.0479 52.7821 3.48027 79 67 77
65.0332 94.2898 17.7635 58 53 57
107.577 81.2194 15.0005 35 26 31
104.01 104.804 41.4645 180 75 80
75.5391 93.9508 16.8645 75 71 85
104.628 90.187 19.5014 49 42 49
70.5306 92.8252 16.2889 60 51 56
126.97 82.2734 33.7843 71 61 60
120.694 81.2234 31.3928 49 39 38
103.449 89.269 20.4249 41 35 47
125.523 85.8483 44.1897 68 44 42
124.78 83.6127 39.5184 31 21 20
127.235 80.5403 25.4213 63 53 52
101.165 90.5941 19.1723 154 23 28
133.251 74.9396 19.1107 41 31 30
127.074 82.6746 46.3529 67 48 42
131.175 80.7861 32.6717 54 44 42
63.8144 94.2537 17.7105 4 0 2
102.399 103.559 37.8395 179 22 31
131.371 76.0938 28.0854 53 34 27
115.788 96.2995 50.0728 54 39 36
130.742 76.7157 17.5701 39 28 24
131.85 78.9013 25.9383 46 30 15
102.37 103.845 37.9387 178 23 29
105.642 89.5317 26.7524 92 29 40
65.0881 91.6124 16.4319 55 50 54
100.409 103.936 41.0301 191 36 42
79.327 81.5348 15.338 224 218 220
102.61 101.508 39.9766 179 22 31
100.27 105.207 39.6525 192 41 50
68.7411 94.149 15.9824 31 25 29
111.943 84.7259 15.7363 30 24 26
122.82 83.4933 19.3342 55 43 43
127.024 83.2926 35.8302 42 32 30
61.3928 92.1226 17.5331 46 35 41
70.222 65.845 16.358 208 198 197
102.656 89.1061 24.1673 163 19 29
117.136 92.3444 56.6799 59 44 41
111.217 83.9696 16.1919 27 21 23
125.243 84.2819 41.2066 51 36 33
78.7236 70.1979 13.6523 167 129 128
70.4261 93.2806 15.8375 61 52 57
122.978 79.1875 23.3718 56 42 42
100.226 105.606 39.4433 189 39 48
117.416 94.3376 46.2885 47 37 36
134.447 65.6275 64.8591 233 201 56
110.049 95.5013 48.7102 163 146 136
114.948 84.4671 44.5726 221 210 206
122.906 83.7804 55.3018 233 205 59
112.679 87.3471 48.1859 33 25 23
135.727 76.7801 73.2074 250 213 83
135.972 76.7117 75.3458 217 189 80
121.087 71.3597 41.4145 65 55 54
114.751 84.3435 44.0195 77 66 62
125.706 76.0956 55.1593 206 175 170
115.947 92.7151 52.2309 148 123 116
125.284 88.6523 65.2601 78 81 74
130.265 70.9706 59.6755 55 36 32
132.9 65.4644 58.4708 72 67 63
126.494 72.8376 52.6802 56 38 36
129.395 67.8023 54.7944 74 67 61
122.542 69.9427 44.006 67 57 56
129.249 68.3638 54.3272 79 70 65
132.884 63.1387 59.1928 68 63 59
123.467 67.912 45.6467 67 57 56
123.377 68.2382 45.1232 67 57 56
117.137 79.0548 38.6101 34 24 23
124.339 64.7371 38.0249 54 43 47
132.385 65.1152 56.2406 74 69 66
122.867 66.4957 43.2731 68 58 59
118.746 90.1044 59.4353 49 38 32
118.407 80.0386 41.8991 53 37 37
130.138 64.1931 52.4148 56 47 42
130.41 63.1459 53.5744 54 44 43
122.249 66.8298 36.9299 51 41 42
122.404 66.277 37.2898 46 36 37
121.83 71.6056 38.6229 68 58 59
98.7539 59.1996 52.8904 251 240 238
99.215 68.1443 41.1147 223 208 201
99.5726 65.4591 45.0833 221 204 197
97.4531 62.4936 54.2031 71 66 72
94.4107 67.667 61.0494 21 165 215
116.115 81.1214 4.66028 85 74 82
93.4443 66.2542 62.6831 20 164 216
115.883 81.4314 4.93085 87 74 81
95.9793 69.2193 49.8706 226 216 206
109.376 92.7447 19.5231 204 179 175
96.8511 67.8804 54.6528 220 211 206
96.7248 57.5911 61.0383 231 216 211
98.6523 72.1757 46.4635 47 66 98
109.956 92.4529 17.81 214 185 179
94.875 72.8512 52.0329 242 241 239
94.9586 87.5107 46.6092 224 172 174
109.701 96.8281 32.5931 134 126 123
95.1006 77.9843 50.9063 250 208 186
112.182 67.5026 12.5148 219 207 207
100.336 99.6219 49.1011 77 79 94
95.8563 51.0761 69.0656 86 84 97
96.694 50.2562 70.3536 89 87 101
98.5807 83.3902 40.1103 107 88 82
101.536 87.8887 37.1778 94 40 40
94.7774 62.5815 57.0808 255 245 245
112.154 82.1954 5.47816 46 36 44
110.924 83.8044 3.44594 36 29 36
108.229 70.5505 9.75886 177 155 158
108.488 68.8109 12.7426 175 150 153
95.8277 88.2638 51.8091 225 153 167
100.233 85.2403 37.0672 192 112 77
94.455 61.238 63.9451 34 169 224
94.7668 67.6139 58.7947 20 155 210
95.6761 88.5522 53.177 131 46 69
93.6785 68.784 57.3046 24 161 216
106.799 89.909 28.1364 40 34 48
97.2063 92.3064 48.6035 198 45 65
97.9388 75.5285 45.2004 88 49 76
103.876 50.9131 41.8036 44 24 33
95.3225 68.1382 54.9711 239 228 226
105.92 91.0624 26.3244 32 29 38
105.133 79.5094 20.6796 122 97 101
94.0564 90.5162 50.4898 168 94 117
107.48 93.3589 29.0524 145 137 134
96.4836 79.0376 43.8901 157 32 46
105.269 56.5386 35.3968 132 103 108
100.191 66.0502 38.634 185 149 137
111.012 91.3472 18.9553 182 151 146
118.645 86.1934 9.35029 71 61 69
100.885 60.2824 41.0507 108 88 90
98.1981 91.8639 43.5368 204 43 61
118.118 86.9304 10.4993 77 67 75
110.27 93.3865 29.958 168 159 154
96.2921 86.1475 44.8009 179 17 32
97.0019 64.087 55.4927 242 227 222
103.587 80.2233 25.3298 50 39 53
118.505 86.389 10.0785 74 64 72
100.419 64.7356 35.8704 44 29 34
106.536 56.3411 26.6556 37 26 34
106.779 80.7526 13.5249 79 63 64
104.109 79.7751 25.0398 46 38 49
97.0568 85.2282 45.9416 168 24 34
109.131 100.547 41.4902 114 108 118
104.135 93.1854 34.6842 143 38 45
94.8324 88.7122 49.5082 208 91 117
103.396 78.3684 23.8136 55 49 59
112.538 91.6097 15.9446 131 103 102
107.79 93.7798 22.1156 49 46 57
112.982 93.6921 18.6083 79 55 53
97.6833 90.5531 48.8615 206 47 69
106.507 94.5633 30.7063 169 158 154
109.071 81.9341 16.908 74 54 56
108.648 82.4759 16.2695 76 54 56
97.3429 89.2207 46.4965 205 43 66
102.92 76.0561 28.8105 53 36 54
103.711 95.3967 35.0562 159 29 41
101.09 51.4807 53.846 80 74 88
103.599 93.1293 38.3959 164 23 39
108.557 97.3059 36.7792 33 23 22
103.065 100.556 45.117 84 79 86
107.058 97.9641 39.0448 180 34 44
106.297 68.0636 14.0225 41 31 39
108.764 97.0208 36.4943 34 25 26
110.928 98.2935 40.6944 49 35 35
106.479 58.9611 28.5353 49 23 34
96.5491 64.5706 54.2994 86 66 68
100.841 88.2963 35.9563 108 31 25
108.435 70.9785 14.6739 37 24 33
100.313 50.0122 56.6065 138 140 153
107.444 77.3775 13.6356 37 27 35
96.1666 80.0512 49.4728 186 96 72
103.939 96.9695 44.9454 194 76 90
108.038 82.473 10.4668 89 77 81
101.204 55.0628 47.8183 68 57 65
100.337 79.7227 36.8112 151 132 90
101.218 78.3438 34.1299 190 35 51
106.759 92.8586 26.7711 53 51 64
104.017 90.6174 27.6398 139 34 39
105.162 98.8502 42.806 153 73 74
107.426 72.1473 17.0177 67 35 48
106.657 96.7399 41.6982 190 28 39
103.578 87.7359 31.1508 130 20 29
106.409 52.9363 32.6317 38 27 33
106.829 63.2472 16.124 37 29 40
107.544 61.2716 24.1945 41 28 37
93.7256 56.1338 69.1906 78 84 96
103.297 59.0459 38.4934 134 109 113
103.816 99.1557 40.9055 195 54 63
99.3749 86.7711 44.9331 188 31 48
106.533 96.1556 38.2945 179 31 43
103.997 96.8754 42.2101 188 41 51
114.142 89.0532 0.187842 104 89 92
102.97 77.3813 32.134 176 36 49
107.717 73.9664 13.8342 38 27 35
102.581 77.846 31.7289 180 23 44
99.2293 50.0498 57.5513 231 230 238
108.434 88.8814 20.5113 52 38 38
109.158 82.868 9.76678 38 29 34
107.077 88.2871 21.908 59 56 65
101.62 96.0748 44.4858 194 32 47
105.8 95.2649 36.1279 161 29 40
105.454 88.2962 23.9107 33 23 34
108.541 76.024 16.386 28 19 24
109.566 66.5243 11.4981 181 162 164
99.0333 96.6903 44.5925 198 40 55
110.463 74.7622 8.15919 32 23 24
113.04 81.9889 6.99875 39 32 39
116.102 93.2635 11.986 44 35 38
105.681 81.2785 28.009 54 48 60
101.093 87.1139 32.0272 52 45 76
103.109 97.0463 38.8772 183 25 39
125.086 77.5506 22.2308 209 195 194
121.409 66.525 33.2237 193 174 176
121.28 66.5685 33.0679 193 174 176
116.399 95.5128 42.1365 224 219 216
132.241 77.9146 6.801 183 163 164
131.827 76.6728 7.85877 188 170 170
98.4343 59.4893 52.2964 213 199 199
121.027 63.1436 37.0526 202 186 187
120.102 62.2766 36.6118 202 188 188
120.669 63.257 36.3963 202 188 188
96.0172 67.735 48.5879 227 218 221
105.613 88.0832 44.2322 218 139 109
89.3431 59.1842 55.1811 249 232 238
91.2101 58.7697 56.4123 229 224 230
89.9403 59.0335 55.6029 239 226 235
102.121 78.5106 49.0599 62 60 73
87.5767 55.584 55.9869 237 221 232
96.4659 80.9987 52.749 87 82 102
98.1911 74.4815 45.6527 252 250 253
123.951 70.4968 29.1875 205 189 189
116.895 90.4396 38.9785 51 42 47
132.383 90.6752 9.59843 138 99 24
90.4593 65.0081 52.493 237 228 231
95.2167 78.1035 49.5318 181 176 180
102.503 82.6046 50.9275 77 46 52
102.581 72.5171 49.7216 235 221 220
95.5231 60.6057 55.7408 215 66 86
131.392 91.1672 7.93902 150 113 43
116.754 95.5776 45.7004 163 158 155
97.6666 70.9807 52.7006 222 216 218
95.9251 71.0777 49.9583 221 215 219
107.516 50.4934 55.8216 88 76 86
95.0728 71.3477 48.8517 224 218 222
95.7107 60.3605 55.4752 214 59 75
116.773 89.6709 46.0937 158 148 146
116.525 87.0914 34.4809 181 152 148
93.8172 81.3678 54.8529 26 168 216
124.596 92.6939 35.5408 49 39 40
95.4682 53.9451 55.7544 223 208 211
92.4495 81.8632 54.0656 55 168 212
95.9053 53.8425 56.3012 225 209 212
119.703 79.0684 29.991 32 26 36
94.9349 80.2787 52.4032 71 80 109
118.947 88.838 35.038 71 51 50
112.073 73.4628 39.3484 131 104 111
114.57 79.3447 36.9433 116 90 93
125.696 91.9701 29.2618 68 59 60
115.301 94.9228 49.5367 54 47 55
89.1438 67.8469 51.9269 77 65 75
108.737 64.0156 45.6082 42 31 39
117.374 86.7214 34.9824 178 150 149
99.4777 70.4109 49.9464 125 124 138
89.7606 83.2477 54.8829 74 82 95
98.5938 77.1923 53.9841 255 247 246
119.717 89.5637 35.0062 61 45 48
125.318 63.3351 33.1637 218 206 208
88.8629 67.9289 52.0121 93 79 92
106.442 68.0187 48.5538 151 124 129
133.518 78.3425 6.32938 187 169 169
114.027 72.999 39.3124 134 104 112
104.421 59.9854 48.9441 89 69 71
121.19 77.3592 25.1733 50 43 50
105.973 68.4588 47.3554 151 124 129
111.333 70.9692 40.0488 139 112 119
107.457 54.7059 51.4184 80 69 77
109.302 68.9726 45.514 129 102 109
132.511 80.4293 5.36905 186 167 169
107.048 84.6054 47.7567 213 143 117
121.611 88.9108 35.7747 40 34 34
100.238 59.5868 52.7638 213 195 195
115.26 75.1604 38.3904 77 57 59
119.911 74.3873 35.5479 34 27 35
107.437 54.7109 51.1203 89 78 86
105.463 77.314 44.0264 189 23 45
105.376 60.0194 50.0694 95 73 76
107.306 54.7441 50.9419 89 78 86
86.5788 63.2029 54.3306 91 73 89
133.822 78.2123 7.15547 185 165 167
127.803 74.8048 18.1227 77 67 76
128.978 80.0725 14.3687 49 40 43
107.855 61.5152 48.4547 74 62 66
116.179 96.9537 53.9555 71 68 77
127.771 89.8037 19.5805 70 64 66
122.647 81.2564 29.6155 32 26 36
87.491 71.7179 52.6487 87 79 92
108.695 80.6748 46.9411 197 40 59
111.517 75.9028 39.138 136 109 114
120.904 91.6254 31.5735 42 31 35
115.757 69.1918 35.076 39 32 40
134.594 77.8153 9.76617 223 211 211
114.483 100.673 53.7701 70 69 77
114.773 53.2689 48.1418 52 41 49
118.371 71.8977 34.4033 42 29 39
129.742 87.6341 21.6519 65 54 60
136.379 87.0635 7.61815 55 50 56
114.628 53.3061 47.789 49 39 48
115.074 97.4919 52.1791 58 55 64
127.255 72.5461 24.6358 84 73 81
113.805 88.4918 45.6418 56 59 76
129.97 77.2936 12.7286 48 38 46
108.051 67.7146 43.9214 132 105 112
113.803 77.9784 39.7697 124 101 109
105.773 81.8029 42.9537 228 62 84
97.9874 58.6795 55.0677 200 186 186
121.669 94.1169 30.7868 43 33 34
91.8368 77.6149 53.8589 50 45 52
110.621 77.2304 42.1924 51 45 59
91.4454 77.7484 53.1216 55 48 56
109.637 77.5966 40.8472 49 41 54
97.043 90.1271 58.1474 64 135 167
131.882 82.7227 7.86218 48 37 45
125.764 83.5685 20.8525 65 56 57
112.055 89.4889 46.1126 58 61 78
126.272 94.4618 21.627 68 59 60
124.719 86.4238 21.9286 57 46 50
132.636 84.7265 4.8887 40 31 36
107.556 97.2631 57.9948 68 73 92
135.971 79.236 11.2618 230 220 219
122.484 59.886 34.2401 227 218 223
99.6886 56.2526 52.1679 176 142 143
124.751 85.9854 18.966 76 67 72
109.949 85.7933 42.3658 137 21 32
106.625 63.2414 44.4052 40 29 37
104.544 49.3509 55.7086 98 20 42
125.382 86.2221 20.9506 75 66 69
100.899 58.8368 55.7545 220 208 210
121.287 88.7565 25.2462 63 52 56
98.1216 55.8228 51.9135 185 151 152
120.031 75.6768 36.8845 34 27 34
124.156 89.8766 27.6103 62 53 56
118.072 77.4854 36.5664 69 54 57
98.3968 55.7549 52.5428 193 161 162
102.31 93.873 57.1123 207 41 61
126.652 88.8765 16.2982 65 59 59
132.52 89.7734 4.81507 50 38 40
116.64 81.1349 34.0575 78 60 60
119.671 72.2445 30.5496 195 176 182
114.963 57.1024 46.2975 43 31 43
98.4481 57.1609 55.442 221 207 206
110.735 78.7702 45.7821 155 24 42
109.654 52.4161 48.4972 92 75 85
114.956 60.1862 45.7812 50 34 44
125.669 92.4495 35.0092 36 25 29
99.2769 56.7304 54.4735 209 191 191
114.402 57.2567 44.9704 43 31 43
112.047 55.6202 48.6743 46 33 40
117.335 79.7259 29.4503 31 24 31
109.159 93.8462 54.4437 191 30 46
106.557 121.573 27.9558 220 214 218
109.71 81.1246 6.96851 192 173 175
109.952 81.1402 7.52834 184 165 167
114.022 115.404 20.0809 237 229 226
83.1396 91.0652 23.0129 229 214 209
76.3323 68.9289 19.7984 214 195 197
76.3906 72.2675 19.1919 225 211 211
82.4754 91.0496 24.8739 248 238 228
69.5446 63.8938 20.6119 214 202 204
80.5099 91.793 21.4631 248 238 228
69.9216 64.3453 22.2161 221 215 215
69.0279 73.9486 21.0058 200 187 196
115.982 83.1691 8.55685 217 203 202
69.1434 73.9579 21.1483 174 163 171
65.2494 66.8919 20.2192 226 224 225
113.777 83.0418 5.76441 205 191 190
105.856 75.7779 7.25439 204 190 190
91.412 95.5013 20.9558 234 149 128
114.403 82.3423 8.26603 206 190 191
111.354 107.23 20.6258 196 187 188
114.317 82.337 8.26226 205 189 190
87.8569 90.4821 23.1895 33 23 34
116.899 106.244 16.5441 211 183 180
68.5868 68.2415 25.7882 233 222 228
108.509 107.088 22.6215 198 193 190
111.609 106.991 16.221 103 83 85
88.6118 90.5004 23.9678 33 23 34
110.756 107.026 15.8272 82 69 78
117.276 106.077 16.6546 204 176 173
117.787 106.057 16.62 195 164 161
123.78 106.856 13.7251 142 107 101
105.473 95.9599 13.2652 255 232 227
108.994 107.33 17.028 111 109 112
116.104 109.565 20.755 251 246 250
136.998 106.425 10.8544 183 139 42
103.742 108.865 18.6721 194 188 188
79.782 98.1173 29.0475 215 61 89
139.889 101.132 8.71746 211 169 57
101.304 118.062 24.0149 108 105 116
100.88 108.329 21.5515 86 84 97
96.5301 107.179 22.2216 78 76 90
101.709 77.7206 12.1658 39 27 37
131.34 113.154 13.9738 226 193 62
114.61 120.096 20.759 122 98 96
75.194 68.2027 21.7919 217 205 207
75.7169 68.2565 22.4449 221 205 208
75.6925 75.3666 22.5517 206 90 93
133.087 112.565 15.8987 234 200 67
132.978 112.267 15.1351 246 215 109
83.0778 84.6861 18.7669 249 244 241
87.049 73.4471 17.7327 85 69 70
107.847 71.4421 7.54753 73 66 74
105.78 72.4367 6.39987 82 60 72
103.325 70.7397 8.69658 214 63 114
107.218 71.3772 6.54688 73 66 74
69.8268 79.9415 23.1291 231 87 149
109.685 107.118 19.3229 190 185 182
118.597 82.0226 2.35613 78 68 77
81.8253 61.8974 15.4576 191 48 94
98.913 64.0092 9.65685 149 56 83
100.896 77.6588 11.4058 43 30 40
110.428 106.708 21.9937 188 183 180
81.4496 61.8492 14.0479 188 53 94
104.877 102.212 18.9126 45 34 32
103.853 104.128 16.3799 83 72 70
87.8012 67.602 17.5907 83 72 78
68.2819 73.2752 26.7426 88 75 92
111.298 107.051 21.5953 236 231 228
81.1649 60.0514 19.9712 194 52 100
74.841 79.2965 21.7079 214 204 212
132.741 109.42 10.9433 68 56 56
88.3247 67.6596 17.7256 75 64 70
136.329 112.297 9.65902 80 69 75
116.254 117.594 20.3294 96 78 76
91.6385 86.5632 15.5214 59 27 38
123.109 102.349 8.68175 44 35 38
128.045 109.62 15.2259 42 28 25
104.56 81.0759 11.9763 36 30 40
109.82 101.317 17.7674 136 116 118
87.4982 67.1533 12.578 71 60 66
127.827 109.632 14.9335 42 28 25
93.0863 77.7975 15.7754 37 26 34
105.796 81.1544 13.5069 36 30 42
100.405 101.294 17.8997 58 61 78
128.481 109.596 15.3146 44 30 30
109.403 101.325 17.1124 68 48 50
72.5694 97.386 27.4678 25 162 214
117.06 102.505 17.4842 72 57 60
118.743 114.778 19.5453 92 82 80
115.307 94.7993 12.3192 56 44 48
111.798 75.9298 8.63188 210 196 196
115.023 117.671 24.7178 45 35 34
115.462 102.542 15.2657 62 47 50
83.17 73.515 18.4239 162 133 129
94.5263 80.6986 12.2488 133 96 104
121.202 96.4483 12.0259 69 60 63
133.614 94.8125 4.61286 56 46 45
95.0288 80.73 13.2674 130 95 102
122.18 108.703 14.7586 60 50 49
102.218 68.3175 7.65437 219 65 119
82.4868 64.6198 14.0151 109 82 99
103.162 68.4824 3.99243 85 37 61
105.85 105.305 18.3143 216 211 208
110.976 116.031 22.5634 44 35 40
90.5352 86.8358 17.4 189 26 43
78.0832 63.5399 21.5811 150 40 49
108.626 101.339 16.775 113 104 105
110.097 113.144 22.3039 26 17 20
106.561 63.6285 9.49779 130 59 91
104.478 63.3487 6.48332 221 111 156
95.2089 73.9621 13.7615 115 37 59
73.8214 79.2286 21.9888 173 171 174
88.9296 57.164 11.1344 242 100 158
139.393 96.1732 4.31062 60 49 53
125.616 103.751 10.4332 39 33 33
76.0285 93.8197 27.6454 43 37 41
103.193 65.1954 4.7461 198 86 132
104.035 65.9462 6.21403 225 87 139
85.2381 81.6813 15.1418 189 165 163
105.038 110.351 23.7508 41 32 35
82.2288 69.8045 18.5085 146 105 111
117.01 88.2521 5.53906 81 72 75
105.207 65.9795 6.49759 97 58 79
77.2653 90.1091 28.4807 63 58 62
82.02 99.2123 23.4548 186 30 44
142.331 107.705 9.64042 249 217 114
95.7712 67.8061 14.1182 48 37 45
94.0878 67.6166 11.0015 51 35 48
140.048 99.3052 1.79139 74 62 66
78.703 95.229 27.09 208 50 75
82.1086 69.7925 18.4034 152 110 114
106.788 112.06 23.2982 48 42 46
95.5116 67.7768 13.7862 48 37 45
107.032 66.5417 9.13338 87 64 80
73.2091 97.1042 29.4758 65 151 198
114.285 98.4426 14.5101 50 36 36
102.976 101.25 20.9303 53 53 65
112.902 91.2581 6.6812 35 28 35
136.183 111.135 13.7583 74 68 70
108.046 111.498 21.8913 119 111 109
95.7164 56.7016 7.58482 63 49 64
68.3732 67.7763 21.7358 255 210 216
90.6685 69.1759 15.4824 62 49 58
106.078 68.2377 5.21603 78 64 79
83.9154 99.1967 26.7187 195 30 46
74.2846 95.5449 30.9034 43 93 130
106.243 66.4449 8.40561 141 66 99
114.399 88.5763 7.22802 46 41 48
104.817 65.931 5.88712 85 67 81
126.9 103.529 14.6581 36 27 28
78.3275 79.5165 25.8004 211 209 214
96.0633 73.5233 10.9247 46 36 45
72.3694 98.3763 28.2037 47 129 169
78.407 73.0989 19.2522 218 206 206
108.645 88.1429 11.0942 39 29 38
109.038 88.3743 9.31305 38 28 37
100.541 111.042 24.2393 78 80 93
71.4727 98.3808 27.4448 65 85 112
107.047 88.0857 8.72611 39 31 42
126.919 107.766 11.9433 39 35 26
97.3186 96.1067 19.4822 130 28 39
117.352 98.4422 11.5786 74 64 65
82.4158 69.1976 18.158 49 22 29
133.757 106.158 6.35514 148 98 35
127.394 96.1303 4.21595 48 40 38
95.424 86.7477 16.6252 54 44 55
70.1149 66.5679 22.2693 255 218 222
110.413 113.123 22.2488 101 91 90
101.406 80.9954 12.06 38 28 37
98.6254 88.8071 17.5908 43 39 56
100.705 64.24 12.206 144 45 74
72.969 89.7199 29.2073 56 48 59
97.8093 76.0893 12.7859 46 28 40
66.7215 77.3058 22.6097 90 82 97
101.727 101.97 21.4855 62 65 82
97.5894 56.9926 10.8132 59 45 58
99.024 74.1488 12.2182 49 33 46
128.656 104.347 9.29984 50 45 41
103.01 58.8743 7.02007 72 61 75
96.2328 67.7073 9.48747 57 21 35
121.486 82.2053 5.40138 69 62 70
99.0765 91.9334 13.838 47 45 58
90.4983 76.3732 13.959 40 33 41
119.572 98.4284 14.5912 68 56 60
110.209 100.567 13.2963 156 137 139
75.7791 79.3557 22.2004 179 170 175
140.747 99.2976 2.27688 73 62 66
94.931 84.8718 15.0631 139 114 118
70.2991 66.1569 21.7982 255 210 213
113.582 99.1041 15.9633 49 33 34
123.915 93.5328 10.1487 87 81 83
120.074 94.3216 10.1113 80 71 74
95.9427 83.8901 14.242 132 99 106
125.065 83.554 3.78419 49 40 45
112.26 81.2894 9.80869 204 188 189
128.313 107.7 14.6836 37 26 30
93.367 61.5391 11.6248 119 72 54
120.236 95.253 8.30697 21 15 17
100.354 89.7345 17.5886 47 43 58
69.2658 66.045 20.1538 254 204 207
122.401 84.525 1.88254 49 43 47
96.0592 82.9003 16.4683 139 108 114
101.477 93.0895 19.7311 40 34 60
134.933 91.1167 1.26256 47 41 45
125.621 92.3175 7.00387 40 24 11
112.677 97.0714 16.6861 58 40 40
143.253 104.575 8.44932 81 71 70
132.982 92.356 2.25674 44 33 37
117.751 101.835 9.67045 44 35 38
94.942 66.2822 8.94627 54 37 45
125.89 94.3122 10.3327 43 34 39
104.077 123.622 31.8271 52 51 59
134.988 92.3976 5.13074 46 37 40
95.426 92.4205 16.9779 144 32 48
79.2508 77.4667 23.1629 239 228 236
124.516 94.1726 6.35837 59 51 49
100.937 66.0174 9.37107 173 48 88
98.2804 87.9993 14.587 126 105 110
80.9884 60.8775 15.6435 187 50 96
94.7161 102.005 25.3957 187 33 45
97.4384 87.9699 13.5758 136 111 117
96.832 85.5675 16.6414 133 101 114
133.386 92.3644 2.5469 42 33 36
100.591 111.039 25.1778 78 77 91
141.052 110.689 50.4295 59 49 48
143.035 115.278 60.253 88 71 63
145.8 111.465 52.2692 130 113 93
92.4368 57.372 4.17103 63 51 63
133.782 111.963 54.8345 84 76 74
94.9924 57.2514 5.00839 63 55 66
146.254 112.258 56.7574 52 33 18
125.763 112.268 53.9753 50 39 43
124.796 112.853 53.5394 62 57 64
89.477 55.1538 5.89138 230 76 136
93.5145 57.5661 3.00879 57 49 60
91.7019 57.5129 3.23713 65 47 61
93.3239 57.7117 6.74879 67 49 63
92.5061 57.809 3.12986 67 53 68
92.2711 57.7805 3.05185 69 52 68
90.9379 57.2482 3.23777 67 46 63
87.3859 57.3332 9.83232 230 77 144
75.7456 56.8591 13.3293 81 69 83
73.5559 75.3416 14.2557 184 167 173
112.753 107.971 22.3459 83 78 74
121.29 81.8016 9.07854 181 165 166
100.217 75.4866 0.406953 211 196 201
122.591 82.5329 6.62606 186 166 167
107.405 105.94 21.4618 233 228 225
110.775 85.5216 0.914267 216 201 204
60.9297 69.853 17.1646 228 216 226
65.6871 74.0122 16.9828 236 226 234
60.1557 69.5054 15.8091 229 213 223
84.3788 84.3028 15.0365 207 193 190
100.75 76.1371 0.331269 212 197 202
117.731 104.025 12.2638 198 167 164
117.796 104.05 12.5576 199 169 167
66.0245 74.5947 18.6133 230 223 231
115.025 109.643 22.5987 207 197 196
117.936 104.104 13.2471 198 170 167
115.662 104.433 13.4316 216 195 192
71.8345 74.533 16.3558 223 61 82
101.356 76.8956 0.875713 202 187 190
112.147 85.4793 1.73725 77 64 74
81.1207 99.1359 30.8607 178 80 127
100.371 72.4928 1.29439 84 66 80
114.166 85.0256 0.527062 81 68 78
109.801 103.414 19.4137 217 212 209
113.056 85.9345 0.645387 79 66 75
110.45 107.701 22.4948 251 247 244
114.36 84.58 1.81847 82 70 80
106.716 107.122 22.4026 242 236 236
80.5948 96.1624 27.237 255 145 173
104.353 104.986 25.2566 203 193 191
102.838 105.728 22.2992 238 227 225
80.7298 65.4823 4.07883 73 60 67
108.615 99.5913 17.9785 74 62 64
64.33 63.2569 12.3737 211 190 189
67.4284 67.9494 10.2614 217 197 199
108.779 99.6555 18.1373 74 62 64
120.267 108.367 16.7362 76 60 63
114.172 76.0635 8.52617 76 64 74
119.038 106.947 16.836 69 50 54
79.6658 95.3204 28.5861 255 135 171
68.7338 81.657 20.6196 235 84 155
102.925 102.657 23.2639 46 44 58
124.387 109.611 17.2961 51 35 36
83.8916 103.207 31.4742 208 51 80
96.3852 72.4049 1.10873 212 61 116
110.404 107.178 22.5813 253 249 246
103.059 105.803 22.6943 230 219 217
92.274 80.4195 8.52666 131 87 100
112.706 107.955 22.3515 83 78 74
109.064 97.3589 13.734 57 31 32
99.0129 102.226 20.8449 127 130 149
112.136 103.76 19.0775 90 73 81
97.6455 75.1717 0.24559 63 52 60
111.866 83.443 0.992346 77 66 74
79.0908 95.118 26.9018 220 71 100
108.369 97.0749 12.4135 104 78 79
83.617 103.12 30.9005 210 50 78
106.403 105.077 23.5537 232 222 221
114.125 102.743 12.3079 102 68 66
68.4234 73.3251 16.3461 215 209 213
121.561 108.424 15.1554 70 52 52
73.9442 64.3014 3.92094 178 59 97
105.955 104.92 23.5588 233 221 221
91.3998 80.2993 10.7311 130 88 98
64.9041 78.1212 19.5713 234 87 155
115.92 100.986 14.1387 51 36 39
104.742 78.4802 0.579124 207 191 194
125.181 105.379 13.4611 134 106 102
107.043 109.619 22.8086 254 250 249
84.7348 67.9954 4.44096 57 45 49
62.833 74.4014 19.3826 108 43 77
107.821 80.1284 2.56321 217 205 207
90.2921 84.8511 13.2333 178 50 65
70.0737 81.3683 19.9988 240 207 228
76.0608 63.8033 1.1031 118 104 119
97.4032 76.7629 1.10381 59 45 58
108.178 96.9966 12.8169 91 60 58
92.1889 81.6395 11.0628 139 93 103
108.221 109.049 23.1971 201 192 193
95.6375 84.7114 10.4592 130 93 100
92.0566 83.3935 11.0302 129 86 95
104.931 110.596 24.3725 81 72 77
81.5823 67.7834 3.96665 111 96 101
66.4319 79.4404 19.427 240 84 155
92.8699 86.3635 12.1691 62 53 58
76.7277 62.9733 0.748659 85 72 82
100.669 90.9905 13.5819 47 39 50
103.036 99.9325 20.313 61 59 73
89.0984 106.252 30.7952 181 56 88
60.5093 71.5951 20.1981 228 77 144
86.7793 80.6078 12.238 152 116 116
112.287 92.3473 6.31334 80 67 74
91.0882 82.956 8.75036 136 94 104
131.864 103.748 7.59784 101 62 31
119.77 102.489 10.5249 33 24 25
112.466 92.4285 6.51693 80 67 74
62.6744 76.1796 18.9184 237 95 155
94.532 94.6965 18.3474 74 17 24
78.8697 66.8229 7.71834 91 75 85
72.2482 62.3885 4.946 126 45 77
98.9392 69.8807 4.58728 79 62 78
118.821 92.9009 2.64806 64 53 57
81.3763 78.3689 10.4021 204 182 184
86.7617 59.7856 2.31766 49 29 38
112.239 93.5764 5.6798 74 62 66
111.658 97.8235 10.2626 66 49 55
102.361 95.6726 14.2955 53 50 61
84.0184 67.6209 2.99521 63 51 55
120.16 83.6666 7.1216 50 40 48
70.7908 72.5402 11.8121 229 213 216
121.143 105.074 11.4473 41 25 28
121.091 85.9641 3.68193 43 32 40
121.793 102.844 10.0066 34 25 28
127.894 89.5651 7.65717 46 34 38
81.7455 55.14 9.21256 79 37 59
103.826 89.6675 6.87795 70 50 52
80.2148 101.756 31.3956 19 156 211
84.7396 91.0061 24.2708 198 37 53
85.1706 73.8788 5.94772 40 24 34
93.5273 86.9181 10.1733 57 38 44
119.35 84.5404 2.88738 66 54 58
117.168 107.958 16.2976 217 201 202
72.5285 66.2319 5.19435 187 45 91
97.7257 99.7001 18.8652 32 30 51
86.314 61.4553 4.84835 51 32 36
125.283 87.607 5.54763 42 23 25
102.191 95.6041 13.2149 64 54 65
98.8479 107.277 30.5755 32 161 216
72.1683 74.0959 12.0523 167 151 154
90.6551 105.2 32.8569 199 46 66
72.5775 74.2815 12.1811 228 216 216
93.2348 86.7911 10.1439 77 61 71
123.927 103.409 12.3909 38 29 30
81.6465 55.5966 4.90144 230 75 141
117.897 92.4659 0.707221 63 52 56
68.1904 60.6898 4.06612 73 56 74
77.7838 57.2124 0.439523 232 79 143
123.331 108.114 12.863 54 42 42
109.685 101.373 14.7273 108 89 91
116.223 91.3327 3.85607 82 67 72
126.981 88.5317 7.09132 49 39 40
97.7878 83.3197 7.46795 43 30 40
123.93 106.613 13.4474 68 56 58
98.5792 66.2756 7.03366 80 66 81
90.7119 67.4336 1.34907 50 37 44
69.1713 64.3688 7.2439 187 58 89
101.658 89.7905 10.0818 119 88 94
79.6238 92.8233 24.4375 214 54 80
124.627 108.596 15.6678 52 40 40
115.367 95.0971 6.87987 68 56 60
83.3495 63.467 0.429632 80 65 68
126.446 88.2456 6.67217 49 37 39
115.015 98.407 7.20411 63 51 53
123.719 103.324 11.693 35 26 27
125.089 88.0335 6.18472 42 25 31
97.8226 91.7323 17.1759 133 31 45
75.6078 67.4545 5.82983 52 31 40
81.4884 94.0401 27.5395 218 61 90
101.021 83.6174 6.50848 45 33 45
120.875 93.8661 3.88482 75 64 68
99.2325 73.3532 0.70854 73 53 65
115.26 96.077 7.49889 56 44 48
118.876 90.9686 2.88482 73 62 66
95.6511 98.8391 21.5028 169 28 44
78.5654 83.7132 18.7871 221 214 221
99.8406 102.517 21.8068 66 71 90
111.043 99.4856 11.0358 46 24 27
94.4168 89.1337 14.7676 156 31 47
88.0477 65.981 3.4576 46 33 42
96.4401 99.1271 23.3026 180 24 38
81.5516 74.0957 5.61265 58 45 52
117.422 86.8154 3.73567 57 45 47
71.4287 60.2289 4.95548 71 57 72
115.768 89.1058 1.18338 82 71 75
119.984 93.4468 2.18429 71 60 64
120.748 91.6589 1.18656 66 60 62
120.015 90.0467 1.57763 66 54 58
117.681 81.9711 7.00997 77 66 72
95.5651 98.8077 21.9066 176 24 39
120.338 96.2045 2.95215 72 63 66
75.1352 77.9453 17.5447 231 225 229
98.5302 78.0745 2.42937 57 47 58
74.5972 92.093 29.3309 79 69 78
100.223 82.6482 5.94237 44 32 44
69.5239 59.2248 2.30878 71 57 74
63.6848 69.6007 17.8833 220 140 151
73.9708 91.1301 27.0806 45 34 42
90.7245 63.893 8.1808 167 42 82
122.982 106.249 12.4578 65 51 51
113.807 96.554 7.71432 70 55 58
98.6845 101.991 21.6172 54 55 76
74.6791 92.3796 26.782 74 64 72
117.379 99.1193 9.93565 54 45 48
114.882 83.7304 4.49704 83 70 79
120.961 91.3443 2.28549 31 20 24
95.2984 102.526 23.5631 194 33 49
96.8788 82.5328 6.92914 41 29 39
114.244 96.7411 9.5469 65 50 53
95.0432 79.3743 7.72371 47 31 42
96.7103 103.008 26.4976 194 33 49
123.842 108.391 16.4445 61 45 46
73.3807 80.0061 15.8975 228 218 226
93.815 95.8034 20.656 161 24 40
118.993 95.7797 6.08005 61 52 55
118.505 88.6038 1.8117 59 50 53
93.1934 68.6357 1.07166 186 50 96
115.978 81.8973 6.50581 75 64 72
95.6164 98.7368 24.3879 181 26 42
118.447 94.0843 3.39071 83 74 77
124.887 95.4243 2.26167 70 61 62
99.5205 81.3688 5.20162 48 36 46
109.514 92.1064 6.20984 39 32 39
90.7502 68.1772 3.47517 152 36 71
125.492 108.775 14.2097 43 25 25
105.203 127.406 8.93323 210 168 56
105.258 127.393 9.00067 210 168 56
100.586 126.87 9.63335 124 111 103
102.747 125.792 8.63489 128 105 99
102.25 129.574 7.55958 217 182 64
102.184 129.59 7.18258 219 183 71
111.802 122.305 12.6245 74 56 52
104.298 126.666 7.44897 86 63 55
101.219 119.066 11.4225 42 32 31
101.432 119.027 11.7584 42 32 31
100.609 114.309 16.4557 64 52 54
100.955 114.256 16.8409 61 49 51
107.829 122.559 7.35519 35 17 5
100.565 115.792 18.5366 104 94 105
106.594 120.076 7.11847 51 38 30
100.408 127.454 15.6258 54 51 60
102.388 113.162 16.9708 67 55 57
97.3373 128.047 19.1333 27 21 25
101.423 126.683 10.8611 95 81 70
102.538 129.899 10.4425 223 190 61
98.7353 118.76 21.07 82 78 92
77.2737 98.7883 30.6399 52 41 47
82.2061 102.677 28.2228 224 80 141
75.5641 98.892 28.9773 56 45 53
100.62 123.28 13.8612 86 73 82
99.1606 111.789 20.4964 101 97 112
101.281 131.479 10.8431 39 28 24
102.126 113.614 14.3785 52 40 42
99.5752 126.962 16.7903 54 48 58
97.0626 118.337 20.2519 85 79 91
98.1963 112.202 19.2727 87 94 110
104.698 122.762 11.6678 39 29 30
97.019 129 19.1854 63 56 64
97.2602 127.477 14.2784 62 57 63
106.92 131.086 19.9367 241 207 133
97.161 127.499 14.3957 63 58 64
105.666 127.418 10.6127 74 63 67
97.736 129.2 12.8745 38 31 38
110.812 120.836 9.19237 120 78 30
106.471 127.231 11.0009 67 58 59
98.8536 126.09 17.7665 71 65 69
102.559 113.137 17.2868 62 50 52
101.23 113.335 14.8623 60 48 50
102.546 120.948 11.9191 52 40 40
103.702 120.726 13.6156 46 34 34
106.29 121.059 9.70132 39 28 26
69.9566 71.8957 14.6395 187 71 80
70.2225 72.1361 15.4377 219 144 148
137.807 91.0085 22.4159 187 167 168
105.199 119.326 25.4126 228 225 232
113.754 102.588 21.1806 70 56 56
113.484 103.219 19.7158 98 82 85
113.261 102.108 20.1842 85 71 71
103.376 119.927 22.9577 244 239 245
111.984 108.464 22.1325 224 214 213
112.03 108.506 22.3114 224 214 213
129.232 122.98 19.4134 211 170 52
63.2294 64.5142 16.9069 226 211 216
129.279 123.023 19.6061 211 170 52
61.8302 67.4501 17.4238 232 221 229
118.96 102.135 22.722 213 198 201
116.091 99.7518 21.9847 238 190 178
116.79 110.097 17.0436 219 211 208
132.769 118.296 21.959 213 169 48
107.006 105.59 19.3456 235 230 227
131.613 117.14 18.7627 216 175 51
107.134 105.706 19.5485 235 230 227
139.564 111.243 16.1434 184 132 46
86.3218 79.6955 16.1147 231 218 212
107.272 95.2296 14.711 115 81 80
120.384 103.513 20.3565 100 81 83
116.806 103.424 20.1926 223 209 209
120.546 104.086 19.9597 95 76 78
136.802 115.935 24.067 178 134 47
115.466 103.305 18.3986 221 209 213
110.993 121.147 22.0442 54 45 50
106.921 110.542 18.4818 229 220 221
106.889 113.82 21.5149 68 56 60
119.165 131.527 26.0289 221 185 89
62.5976 81.1648 15.4803 230 84 147
103.791 107.496 17.9616 111 102 103
70.6801 66.29 13.887 206 191 188
63.7033 82.0658 18.2116 229 86 142
62.377 72.0421 19.4878 229 218 224
79.8618 100.984 21.8097 183 57 95
120.352 103.889 19.1786 89 69 70
97.7167 103.951 18.7741 74 79 101
70.6306 66.2434 13.9394 206 191 188
110.945 78.0501 16.9092 77 61 72
117.719 121.271 26.2982 130 107 101
69.1948 70.9193 15.1813 220 212 210
106.708 113.668 21.5411 59 47 51
62.8748 82.1246 18.2384 231 97 150
114.588 106.335 19.0332 72 62 63
108.485 102.57 18.2813 249 240 241
113.771 128.005 25.7728 129 107 96
63.3444 88.803 17.8514 112 69 89
111.436 107.914 18.4635 62 53 54
64.2955 89.5403 18.8722 101 84 94
64.7555 74.8648 17.0216 228 222 222
80.4596 63.4462 19.4567 89 73 86
106.803 77.7172 21.1255 210 63 115
120.386 105.265 18.0795 91 75 76
112.579 108.353 18.1188 108 98 99
110.523 110.92 19.0438 214 203 199
103.292 75.1206 17.8613 187 55 95
65.7158 73.131 16.4768 229 219 227
65.6028 74.6263 17.5795 226 217 222
59.1786 69.2759 13.6952 240 225 230
96.7872 97.3123 15.4041 43 42 58
118.465 101.63 21.0739 219 205 204
103.17 74.9859 18.0697 164 43 78
107.104 120.372 21.2552 57 45 47
108.057 106.427 18.0587 253 245 243
129.588 110.323 18.4794 43 21 8
79.9611 83.2022 20.7842 206 43 60
87.7005 105.176 20.0691 32 159 214
107.565 105.414 19.7318 231 226 223
114.022 109.49 17.4434 185 174 172
122.101 90.8037 19.0833 92 72 74
125.315 92.0668 23.1242 96 77 81
136.394 118.017 22.4303 75 64 62
112.153 118.882 21.4123 49 35 34
103.995 96.0309 16.997 68 58 66
88.895 106.121 22.3806 36 162 213
111.666 118.475 20.1146 49 35 34
130.588 114.457 22.5947 139 125 116
79.0763 81.43 19.5683 166 28 44
114.507 84.6784 14.5459 204 188 189
112.698 109.069 18.8583 81 71 70
124.776 108.322 19.2172 178 164 163
122.003 107.776 17.5389 49 35 35
107.412 81.014 18.6466 75 49 62
146.052 111.474 25.2181 216 176 54
123.974 90.5077 19.2641 86 70 73
122.765 128.422 21.1326 57 43 43
136.847 118.488 23.0249 66 56 54
105.564 99.5809 18.9371 142 124 122
109.39 110.049 18.3693 209 195 194
84.0673 61.683 15.733 112 65 81
117.278 122.567 20.5582 51 40 38
102.366 105.746 18.3626 205 193 193
108.725 82.4446 21.7011 65 49 59
92.6729 73.8499 18.0579 46 34 38
123.95 106.77 16.6442 168 154 151
113.693 81.0012 14.6427 220 208 208
105.454 81.5893 17.4564 62 49 58
136.82 125.778 24.3614 71 61 62
104.942 81.0421 16.2819 61 48 57
112.791 110.602 18.7915 233 222 220
103.866 104.347 19.4072 63 49 46
111.973 112.578 18.6646 210 199 197
119.961 129.348 25.3908 74 51 43
124.101 90.655 19.2637 87 71 74
119.166 120.811 19.4798 120 86 61
92.8844 74.0677 18.1557 47 35 39
80.5598 97.2761 19.2775 200 35 52
78.829 95.8817 16.1742 202 33 52
137.064 118.712 23.2694 66 58 56
103.75 102.016 19.4543 145 129 129
112.554 110.952 19.0734 177 166 164
112.701 125.543 28.1062 49 39 40
65.1087 68.7982 11.9722 188 184 185
103.692 88.6308 18.0126 104 81 87
127.169 108.169 19.9556 118 95 81
70.3307 61.8485 12.3393 92 76 86
69.937 61.4687 11.009 93 77 88
144.37 111.093 17.3563 79 56 42
113.324 84.5115 15.3224 206 190 191
126.567 113.32 22.4688 81 64 57
68.9176 60.485 9.59983 93 81 93
99.5043 89.5711 16.2689 61 49 59
119.319 125.808 26.3542 46 35 33
107.953 123.014 27.509 87 77 85
139.727 113.284 16.33 210 171 50
113.537 109.235 19.7095 155 143 143
68.1108 85.4005 17.2515 92 70 82
118.149 126.473 25.7535 44 29 24
123.633 112.362 17.6712 50 33 26
64.6814 68.415 11.5032 210 209 207
120.822 134.542 26.2349 221 187 61
62.2848 67.1148 13.8524 255 186 199
126.852 133.428 27.5581 67 58 59
113.603 107.187 19.603 252 242 243
115.718 112.504 17.9712 215 207 204
120.203 129.542 24.5533 99 71 34
102.441 87.375 15.0746 29 18 24
114.237 84.4546 18.1353 207 191 192
125.745 106.708 21.9399 122 108 107
134.181 125.821 22.8427 129 106 54
105.079 125.336 25.3629 62 57 64
130.606 112.729 22.3201 225 210 205
120.286 102.133 14.9854 84 63 60
65.2404 78.4136 15.9954 94 83 97
83.0281 68.3256 12.8284 74 57 63
122.783 136.043 30.2205 223 189 63
109.579 108.631 17.2384 226 215 213
117.261 127.597 22.5558 168 146 133
122.619 96.9709 16.8977 66 54 56
121.435 115.508 19.9751 134 108 83
130.786 130.318 23.4246 75 66 71
112.53 95.3404 21.9051 166 140 139
108.967 124.294 26.6736 72 59 68
64.106 86.1204 19.2095 232 89 151
124.431 110.199 23.5337 71 59 61
114.194 131.16 23.3569 101 79 58
127.181 110.114 18.4415 128 108 99
124.152 113.685 19.2666 58 40 28
67.3089 78.4353 13.6448 222 221 227
103.394 92.0902 20.304 55 47 58
85.8836 69.3578 17.4273 65 46 52
118.434 118.808 22.4125 236 219 209
105.209 94.9336 21.0225 53 41 51
82.7574 82.0033 12.8561 170 25 42
83.7356 100.732 23.4416 169 44 78
141.932 107.089 23.4598 150 104 44
63.2024 67.7768 13.1116 193 75 89
136.755 98.4538 21.0986 56 46 47
109.272 114.149 17.0003 201 191 190
115.895 132.439 27.3633 75 49 32
64.868 79.4686 16.783 98 75 91
124.944 93.5214 19.7503 88 73 76
126.138 112.895 22.1627 69 50 43
66.4173 70.6473 18.5397 224 132 143
124.912 116.305 20.452 132 102 74
114.481 132.252 28.1535 47 34 28
76.8925 72.9934 19.5359 163 144 148
143.743 95.2982 23.682 65 50 53
108.614 126.316 28.6142 141 136 143
99.4242 64.4623 17.5444 68 52 62
135.752 113.539 21.8039 133 96 26
103.36 92.0563 19.152 67 58 61
118.746 125.334 25.2166 42 32 31
125.645 114.319 23.41 75 59 46
115.173 132.767 30.4194 56 45 39
67.6307 95.0898 21.4546 78 69 74
94.2775 85.6742 15.197 167 26 42
131.576 95.1759 24.7197 73 63 64
62.0796 77.5331 14.2802 95 78 96
131.961 108.612 19.7173 67 49 45
133.781 121.751 21.856 241 205 95
140.381 95.8865 25.3048 51 36 41
67.5361 68.5751 16.7992 232 220 220
97.2182 62.8566 17.4945 77 55 67
104.547 128.571 30.9205 101 96 102
96.1611 107.966 24.0221 26 152 210
101.072 122.842 27.6806 96 85 99
97.3924 68.2632 16.0844 48 33 40
94.472 96.8146 20.2458 189 31 46
124.261 100.127 17.9411 52 40 42
124.379 100.255 17.8138 46 34 36
93.7802 95.872 19.6698 188 27 43
93.6852 96.1181 19.2849 186 25 40
131.355 94.9101 23.2345 69 59 60
140.021 95.4196 23.7621 49 37 41
92.4998 95.0687 16.598 186 28 43
94.0627 79.0944 15.2187 48 35 44
88.9034 75.8253 16.0644 63 52 56
111.65 132.478 32.3379 44 39 43
123.716 116.384 20.5963 136 106 80
118.887 119.206 22.8487 102 79 65
66.7836 65.3966 16.8001 253 212 216
144.757 100.124 22.3126 53 43 44
88.8363 103.514 23.3302 97 40 72
145.911 101.64 26.1628 47 37 38
81.9503 103.141 21.895 211 66 125
118.011 124.361 21.6223 49 36 30
120.827 93.6945 14.9733 80 65 68
108.732 130.878 28.9438 44 37 44
97.6765 115.41 21.5946 23 164 210
103.608 128.554 33.5005 77 70 77
125.897 94.7539 20.4879 70 55 58
129.416 131.905 22.4505 73 67 71
95.2206 85.7851 15.7164 161 35 47
129.508 97.0388 20.9512 74 64 65
97.3298 115.142 20.4742 22 162 211
145.071 110.494 19.7738 174 143 89
108.089 128.917 26.9572 81 76 82
133.491 110.921 19.6137 103 75 54
105.434 133.307 34.3383 62 66 78
106.16 127.077 23.904 173 166 173
105.732 133.673 33.4139 60 54 64
122.672 95.7339 19.3372 86 71 74
104.001 79.5497 20.7074 197 55 101
124.027 106.85 15.7971 124 105 98
144.439 99.7074 22.1231 48 38 39
101.092 89.841 15.327 62 39 47
131.396 106.944 18.2767 47 33 32
127.175 97.3248 19.5691 72 60 60
132.551 94.1374 19.7866 61 49 51
128.199 128.303 18.8927 73 68 65
128.196 98.4837 22.027 66 54 54
66.6976 67.1489 18.603 254 213 219
83.6935 75.413 15.8512 198 170 167
63.524 64.2469 12.9123 245 213 216
97.7765 97.7957 20.2567 30 28 50
113.251 111.267 18.1772 222 212 210
131.925 106.564 20.8165 49 34 29
114.472 135.333 31.4509 31 22 17
70.3823 94.3989 16.1919 54 41 48
114.935 138.544 29.5831 148 130 66
123.18 97.6858 15.8121 17 7 6
126.21 95.1128 20.6463 64 49 52
93.7106 92.9913 17.9615 190 32 46
117.766 104.078 20.6633 226 214 218
88.2599 97.8116 17.379 197 36 51
75.073 98.0315 24.9854 62 51 57
115.09 124.618 25.554 53 41 41
95.6405 87.8655 18.3995 156 30 41
100.573 117.656 26.7494 44 79 109
92.4496 67.8966 16.2235 57 45 49
130.895 113.028 23.3948 167 152 145
105.285 101.519 21.284 85 69 69
106.681 127.461 25.8767 82 77 84
92.4242 72.4424 13.8621 45 32 39
116.348 114.964 21.918 224 214 212
73.2172 92.3682 15.9732 232 94 120
94.5693 75.9291 17.0748 48 31 39
90.0642 72.1858 16.8854 49 37 41
66.738 98.5563 22.4253 96 58 79
124.902 103.11 22.4707 68 50 50
112.131 133.646 27.1141 49 41 39
128.896 135.085 25.9464 73 67 69
100.674 83.1477 15.36 55 39 49
85.1932 104.099 20.5801 230 86 145
75.1889 76.4439 11.9918 224 216 214
91.2882 66.6563 13.2309 40 25 30
86.833 105.388 23.1505 134 52 90
130.842 105.372 17.4848 43 32 30
89.628 74.559 18.2765 54 43 47
125.616 135.667 24.648 78 70 67
92.4444 67.891 15.0463 32 19 26
100.209 76.5397 17.3443 144 37 67
88.4123 71.2216 15.4626 54 42 44
99.6986 75.0577 14.5691 152 36 71
100.625 129.62 32.3151 71 63 76
129.669 96.1175 18.801 63 53 54
137.717 96.0394 18.3593 55 45 46
95.187 71.035 18.2759 43 32 38
137.74 102.838 21.6555 46 35 33
107.743 121.14 26.0674 174 163 169
122.474 118.327 18.4195 45 20 0
118.14 109.786 32.5833 82 71 77
118.14 109.812 32.8099 74 63 69
119.052 110.617 17.8182 126 113 105
119.002 107.695 30.1829 199 193 197
119 106.342 30.4367 221 215 219
92.5377 115.601 38.4885 96 76 87
94.9924 117.826 39.4469 87 71 82
82.3924 103.236 30.6975 93 73 84
123.789 107.752 9.86149 187 138 62
109.102 110.808 24.0398 148 138 137
102.707 121.213 37.541 235 225 233
110.994 112.644 20.644 186 174 174
92.6249 116.858 40.0951 80 62 76
61.9936 82.0459 17.0539 91 79 93
106.5 109.375 23.0721 186 176 175
115.789 113.552 15.6315 210 202 200
62.654 80.5804 15.3239 92 81 95
113.079 110.957 24.3776 195 185 183
109.165 112.723 22.705 176 166 165
62.6195 83.9436 18.3466 91 77 90
122.976 111.673 5.53316 45 31 28
122.979 111.469 4.97277 44 30 27
118.642 111.353 11.2842 165 147 135
123.912 112.789 7.43266 45 32 26
115.3 114.79 17.4296 170 155 152
122.649 113.316 12.591 37 23 14
115.304 115.006 17.0121 207 193 190
122.065 112.856 11.0935 104 85 71
123.558 112.213 5.00134 43 28 23
129.387 120.129 30.1051 63 52 46
118.643 111.71 11.2079 202 184 174
115.304 115.007 16.6012 127 116 114
114.23 131.881 53.4661 173 163 164
113.486 112.239 15.3917 177 166 164
115.315 115.626 16.6007 89 78 76
110.872 127.53 40.4489 204 36 59
136.95 129.768 50.1031 75 69 71
119.244 115.912 38.9369 132 105 84
120.441 112.291 7.95863 127 102 80
107.785 124.422 36.909 195 38 57
122.249 106.565 10.8295 46 32 29
123.483 131.208 58.1476 112 88 76
98.0371 122.773 44.4618 88 67 86
111.843 112.991 18.8133 167 153 152
122.452 117.278 34.0568 39 22 12
116.36 113.461 15.928 166 152 151
114.861 112.584 21.8584 206 195 191
113.759 118.289 23.4755 130 115 118
89.2216 92.3964 24.2656 70 85 114
121.259 100.674 22.3686 121 104 84
110.884 130.289 44.5384 222 215 222
84.8447 93.7512 21.2827 182 36 59
94.419 102.192 24.6186 33 57 105
105.659 107.735 25.6544 114 104 103
123.941 96.0239 34.1164 204 162 52
122.085 83.2673 51.2702 167 118 52
110.326 120.912 27.6369 33 33 67
133.728 124.741 42.6832 74 64 62
133.986 127.891 54.7877 65 57 55
105.592 110.483 24.1097 132 116 117
126.666 110.34 3.92455 71 62 67
129.446 105.374 18.6406 66 49 21
128.32 102.461 23.4364 67 49 39
116.799 113.618 20.0734 125 107 95
111.026 113.588 22.2799 132 120 120
123.294 85.6946 50.9434 212 175 61
104.867 110.294 23.025 64 57 64
109.624 108.806 25.7452 172 158 157
114.867 120.782 39.96 193 25 48
109.506 132.62 48.8526 230 220 229
111.385 116.598 21.1388 148 133 136
101.027 115.141 30.5367 222 114 127
101.315 113.852 29.3983 180 41 64
134.284 122.182 31.1072 75 65 73
133.9 120.045 23.8041 73 64 65
73.7773 81.7556 21.1845 188 120 141
84.9854 94.8114 22.3985 139 37 61
114.981 112.1 33.4572 134 112 91
91.8554 61.2899 15.3934 136 23 41
80.5348 55.4892 50.979 8 143 199
80.5229 55.261 51.1821 8 143 199
90.5184 63.8439 25.2679 58 90 128
83.4225 54.0686 43.2995 72 69 96
77.916 57.7878 95.2411 24 59 79
79.947 56.6877 17.7463 115 71 104
78.7057 62.3302 47.7286 12 152 205
82.3851 61.4754 31.0012 159 166 194
86.6396 51.2565 8.87997 206 35 54
84.2986 57.6234 16.6358 214 54 80
79.7376 53.9153 76.2034 65 66 71
78.7724 56.6528 47.2399 39 62 78
76.2042 55.6012 57.7748 12 155 211
86.9554 77.3344 26.1947 47 51 63
88.3435 69.5039 26.309 145 135 144
89.364 67.4544 30.0051 235 232 241
86.6293 61.1386 34.1983 186 176 184
84.2865 52.5154 30.1574 68 85 128
74.3777 56.0767 85.6334 71 73 86
82.3782 56.6267 23.2658 78 87 116
80.1209 58.6333 60.9675 16 155 214
83.4583 54.9071 42.9824 71 67 90
87.3316 71.4614 30.9464 73 79 113
78.0688 56.5238 43.6208 60 57 66
79.151 60.9418 35.1005 49 47 58
81.1458 61.7382 22.5102 188 189 207
87.8195 61.7203 11.8644 182 29 47
81.6859 57.3621 28.6648 188 185 206
79.871 53.1712 41.8187 168 172 197
80.8205 57.0745 23.2614 65 78 120
107.187 126.638 19.2924 189 188 206
128.17 123.276 18.3449 220 183 66
107.29 126.41 18.9944 189 188 206
125.69 126.503 23.4687 190 146 49
95.4321 128.736 6.71229 147 141 57
97.4905 110.892 20.0663 94 86 99
93.2796 127.412 8.21927 150 43 35
100.309 111.622 20.7638 88 78 86
94.5198 107.779 16.2895 210 208 222
95.4753 128.512 6.61079 147 141 57
94.5217 107.774 16.2122 210 208 222
107.175 118.56 24.9581 227 217 225
108.114 116.412 22.6194 231 221 229
117.14 129.204 17.9354 213 180 67
89.8123 91.2546 23.8458 58 38 47
108.624 124.76 23.0893 69 65 80
117.871 127.746 16.765 218 177 69
105.691 111.796 28.6269 195 177 175
93.8597 102.431 15.1899 64 94 132
111.58 129.779 22.8267 93 72 55
116.663 107.255 29.8126 111 83 80
104.341 120.605 18.6051 33 27 37
121.311 120.923 28.9753 84 74 75
128.093 119.205 20.0144 202 161 69
100.016 110.479 14.9481 78 77 93
93.2383 115.681 10.9051 101 82 88
92.0724 94.5304 19.4434 201 34 52
121.918 113.678 27.3128 55 46 49
117.954 110.749 32.3331 239 227 231
93.7162 97.7014 15.9791 32 47 112
97.547 112.029 14.6756 170 167 188
108.706 122.61 23.5625 82 80 93
93.4772 98.3854 17.1111 34 55 118
109.82 129.03 19.8031 177 185 206
105.146 124.219 17.4684 52 49 58
94.545 76.8755 29.3835 213 65 81
92.4549 117.778 13.6981 78 68 76
95.8384 106.974 17.372 196 190 202
108.882 128.877 18.3023 44 44 54
86.9542 98.5934 7.34671 166 169 200
125.56 122.329 28.7783 142 123 117
99.401 92.3025 34.2784 203 38 55
95.8449 110.436 16.3398 199 196 215
87.2899 100.74 7.77773 166 171 201
110.144 128.63 20.115 47 49 61
103.527 124.818 9.18164 52 43 46
115.029 115.968 32.4433 62 55 63
91.0147 77.5466 29.5056 210 47 68
129.332 116.616 21.993 219 202 195
93.5437 74.6686 25.8323 222 63 85
115.365 109.853 31.3294 89 67 69
123.571 112.969 33.5213 84 65 67
115.246 120.744 23.9545 64 50 50
115.637 108.844 29.381 84 65 69
109.534 109.779 28.9536 46 36 44
87.5165 122.59 0.988627 39 91 139
130.758 118.278 26.3679 225 213 215
130.284 117.342 26.084 223 211 213
112.13 122.034 26.0121 55 43 43
128.942 120.63 24.2718 225 217 215
123.087 113.994 27.5409 48 42 44
122.646 114.838 35.3052 83 64 66
120.828 133.612 18.9727 75 65 66
120.637 133.624 17.4171 68 61 69
121.512 131.965 15.5001 73 62 66
110.591 138.708 13.7371 68 59 64
132.432 115.155 23.2232 226 214 216
91.0836 102.304 9.93622 182 173 176
124.538 115.807 26.1215 48 38 39
122.431 127.456 15.4945 74 65 66
