217.848 321.815 320.073
510.228 1158.46 1478.26
1659.21 2840.1 4428.78
252.767 400.923 430.276
-37.4843 -194.17 -450.64
230.386 366.109 384.409
220.408 341.697 333.153
165.401 134.949 88.3225
105.58 12.4616 -34.5073
56.2232 9.0589 -147.403
100.666 14.8486 -48.8132
729.687 2192.01 2608.37
228.753 339.529 340.081
110.926 -34.4529 -168.042
159.956 95.4999 -5.77787
151.886 43.7769 13.7021
291.554 569.945 675.192
169.307 120.202 86.5168
301.179 527.753 533.709
164.463 38.3129 19.4592
109.55 41.026 -127.51
443.522 1015.14 1259.28
-94.8946 -383.419 -614.155
157.325 135.63 73.5491
114.594 57.082 -30.4114
80.8216 -68.0638 -163.697
161.364 110.372 53.4673
270.105 450.466 482.681
167.191 109.032 58.9271
229.366 363.268 388.578
178.967 130.766 67.2103
560.299 1129.68 1288.21
176.876 160.427 100.628
297.488 545.692 562.108
170.853 125.366 92.3675
361.093 675.587 775.799
165.523 115.423 89.4121
117.831 34.9307 16.8901
282.995 503.935 502.593
168.401 152.345 5.4285
161.606 98.3653 -0.0147105
136.995 129.003 66.2843
209.998 291.331 281.474
184.064 71.3873 -21.3589
86.7712 20.3552 -69.0706
183.892 154.121 97.4423
29.6586 -303.752 -455.098
137.216 95.3795 20.6737
111.308 34.2816 -41.8079
222.032 333.488 343.832
-26.9453 -554.369 -680.454
-58.5995 -643.527 -700.024
-145.151 -635.344 -862.482
454.564 1105.63 1351.28
1139.37 3409.52 3438.36
161.228 140.334 68.1457
63.4742 -104.699 -264.655
39.2237 -181.055 -313.995
83.7605 28.8107 -77.3204
149.792 127.202 79.6593
118.694 37.4288 -38.1109
251.782 466.767 500.311
260.188 428.209 438.077
149.89 132.251 100.789
33.4741 -224.236 -276.273
264.447 471.303 474.827
125.187 53.8003 23.5802
116.981 47.0743 -24.4108
186.142 159.468 138.257
143.393 75.793 24.4289
84.3135 24.6066 -97.0861
157.322 95.6084 74.107
49.5312 -158.219 -273.533
167.333 149.362 92.9699
185.682 52.9883 2.45429
229.731 348.356 342.339
330.95 705.622 715.953
177.507 131.111 82.6037
178.449 148.515 122.393
165.797 102.358 50.6758
164.78 94.8204 46.7271
398.769 870.853 898.714
-81.7541 -417.321 -654
137.277 88.6672 43.5386
578.911 1214.24 1358.17
147.825 129.324 103.887
75.7673 -90.3938 -150.489
32.9487 -153.05 -183.268
161.971 157.579 121.48
161.345 128.635 102.942
57.1245 -74.7435 -120.342
109.387 28.5254 -28.4018
61.5296 -184.511 -289.512
148.991 45.1249 -29.4554
150.893 57.8223 26.3266
169.179 164.921 133.709
296.666 510.645 601.458
113.027 -7.01669 -56.4664
152.957 78.0926 23.9538
221.423 343.557 334.575
