ply
format ascii 1.0
element vertex 1407
property float x
property float y
property float z
property uchar red
property uchar green
property uchar blue
end_header
117.823 83.7282 61.5675 242 215 36
95.0118 89.5204 42.3683 252 230 217
123.584 82.899 46.5456 236 208 38
117.006 79.16 61.9542 169 141 102
95.6399 87.3918 45.0518 255 230 221
108.891 91.6751 1.71802 34 28 40
114.896 84.6251 58.2518 60 42 38
91.9033 88.4905 41.7456 139 168 202
105.381 92.1103 9.32792 219 212 220
103.947 89.1613 1.58233 25 21 44
110.056 84.4504 55.9557 220 202 182
108.882 91.7175 2.1564 33 27 37
119.721 88.3395 5.43964 65 56 59
106.666 85.0816 51.4985 233 216 208
119.023 88.2686 32.0108 62 73 103
115.345 83.5581 44.4749 187 122 94
102.141 86.8034 56.2795 187 217 227
101.686 88.5621 54.4054 192 220 231
105.585 84.9202 51.7805 235 218 208
115.468 85.184 41.7163 100 63 57
112.501 83.9172 44.8064 192 109 75
95.2978 91.4252 8.51029 159 177 225
104.236 88.8003 12.9285 255 220 207
98.1804 89.4819 47.3264 254 255 255
94.1102 90.8726 10.1388 142 174 213
93.4408 93.1199 7.30974 159 185 236
93.9866 91.2877 9.91417 160 194 240
119.244 91.3839 10.112 64 55 58
123.122 78.6566 64.4801 181 62 54
93.2091 91.9914 9.45132 142 184 224
112.027 86.2557 42.0855 194 110 73
123.911 83.6321 43.2663 72 58 49
108.615 88.0883 14.7383 172 134 123
107.741 94.4058 5.00826 34 28 40
106.733 88.1506 4.22634 29 24 44
110.002 90.8572 1.11766 31 25 37
106.486 84.3142 51.2203 232 222 213
103.19 86.9078 55.8644 146 174 186
112.82 87.3193 41.8169 188 110 72
104.968 87.6134 35.4384 232 153 120
121.578 85.5818 23.2289 183 168 173
95.2367 92.3891 4.07029 166 152 205
118.753 85.3022 16.6639 195 163 152
95.7433 94.1945 6.12868 146 116 154
106.026 87.6587 19.7518 221 29 42
101.046 90.8943 10.5497 230 192 181
111.667 88.0314 39.9532 195 111 74
95.2757 92.4081 3.05164 196 157 214
115.985 84.4178 43.8231 176 119 89
114.168 89.3311 9.47891 150 121 117
101.594 92.893 8.87727 226 214 228
106.698 89.8245 18.1509 214 23 38
109.402 87.3369 14.9523 183 153 151
118.619 79.0934 67.1156 233 204 40
120.243 90.1507 5.67649 52 42 43
107.754 92.7887 4.95308 173 149 145
101.941 91.7844 4.3189 229 172 181
122.305 88.7703 4.76599 229 212 205
108.961 85.4565 59.7713 119 147 159
107.057 89.5151 5.70963 218 211 218
114.446 86.3785 12.3047 152 121 116
109.957 84.4392 64.7284 61 78 94
123.262 82.1782 28.5166 229 187 27
93.6649 91.5498 23.953 144 183 224
99.9613 90.6141 9.33619 209 158 154
123.736 88.6405 17.5994 229 183 25
119.65 88.9531 5.22021 52 42 43
106.008 87.8647 28.8829 157 39 53
109.881 91.4381 0.363374 32 26 38
93.8592 90.1662 23.1696 124 166 204
115.191 87.1724 33.3171 68 75 103
104.705 86.1823 66.571 29 23 23
105.769 88.8792 27.808 209 118 133
83.8574 96.3327 12.4568 40 159 201
116.067 83.9657 44.3769 167 114 83
108.374 89.2228 3.34767 25 19 33
90.9759 90.7615 34.4351 48 81 122
104.063 89.3649 32.6585 239 139 116
114.985 88.293 31.7197 71 78 106
87.6551 92.9533 28.2978 47 67 118
107.304 84.9565 67.172 31 25 27
105.323 90.7791 25.0105 214 130 143
106.247 89.2232 27.4904 171 24 40
108.252 86.0807 54.9648 205 194 190
112.829 85.5357 54.507 193 162 141
108.036 84.6874 61.2842 111 143 158
103.556 84.6562 63.0455 137 183 198
109.952 87.4248 38.0155 207 114 80
103.549 85.1301 62.1801 144 187 203
99.7258 94.3626 1.11654 198 130 143
124.475 85.4739 28.7717 153 119 45
109.366 83.5501 51.6939 236 206 195
99.997 90.8047 15.563 255 210 217
104.812 88.307 17.5722 175 43 56
104.513 89.7347 24.3568 200 108 119
109.052 92.3274 11.7876 224 214 222
113.623 82.3256 53.1741 187 155 134
96.5269 93.9456 1.72257 87 70 125
107.636 83.3201 62.7696 126 162 178
103.165 85.0139 47.8301 148 171 189
91.9646 92.1795 28.8419 108 150 190
98.6286 92.9658 22.6091 247 83 110
104.364 90.1058 26.9015 180 12 38
117.466 92.1626 10.0308 60 51 56
98.3586 90.4006 26.5964 229 100 131
97.1863 91.9363 29.7665 116 140 184
109.605 84.7779 54.2447 218 199 184
87.1372 95.5608 2.22717 233 70 149
98.5703 88.097 33.5955 169 203 241
112.798 86.4935 48.6545 190 158 137
100.92 90.0373 42.695 187 205 217
111.438 84.0944 49.9085 226 189 170
115.975 87.3499 11.7806 171 138 133
83.2168 95.851 18.4137 143 157 184
104.714 90.2462 1.74117 46 42 56
123.148 82.9884 28.0894 229 188 34
102.225 88.6936 43.6816 175 196 215
98.9079 93.5636 4.66843 234 165 170
84.0427 95.6376 16.3666 224 200 214
109.365 84.098 54.0293 218 199 182
96.5333 93.2263 3.44221 72 50 99
94.2701 94.9651 3.5056 149 178 220
104.86 86.7657 44.362 180 162 162
105.094 87.136 18.443 211 110 118
93.8022 92.4055 13.8928 154 196 234
122.908 81.6643 39.6358 74 63 67
103.619 94.3705 12.8226 217 209 220
112.542 88.3231 29.9485 53 60 88
113.785 80.0031 69.1278 53 38 33
109.767 84.83 46.7415 200 118 78
92.0311 94.448 16.243 149 193 228
119.373 87.852 12.4127 212 183 177
111.577 84.0103 50.9982 203 171 146
111.345 84.102 53.1861 199 164 144
108.688 86.7721 19.613 232 45 56
113.578 81.0404 68.3228 61 46 41
97.6898 90.1326 32.2408 87 115 155
108.15 93.2607 13.0588 225 218 225
82.8684 96.8486 17.3202 186 176 200
115.045 82.3376 64.7126 51 37 28
109.668 85.1983 45.5494 204 122 82
108.236 90.1652 22.4478 213 25 42
120.891 84.4176 26.1344 247 232 235
94.3591 90.5307 17.0195 119 162 197
95.7541 90.5983 36.8417 224 163 170
96.4159 92.1005 18.7217 204 208 243
92.0714 90.5272 25.8292 126 172 208
104.937 89.3159 0.271657 37 33 47
105.877 85.87 45.3249 228 160 121
106.511 87.6385 27.2314 208 20 35
98.898 92.6768 21.4179 241 45 81
113.953 81.6909 62.4716 60 42 38
92.3504 93.6053 23.1043 174 218 255
105.657 86.794 44.0348 227 163 119
104.454 87.5025 20.0145 181 74 82
92.8691 91.423 23.9452 154 198 235
106.56 85.9719 43.7019 222 149 104
95.6114 91.093 6.53769 157 164 219
114.356 79.864 73.2116 78 69 70
98.1191 92.0269 19.9561 230 32 65
97.5247 92.948 22.335 181 189 235
95.119 90.0213 20.8363 146 185 226
108.018 89.8039 15.6551 209 14 31
92.7278 91.9205 24.0415 165 209 246
98.1292 89.6884 30.9319 106 129 183
106.604 81.5341 75.9855 68 50 50
108.106 85.1532 70.3036 44 28 28
116.538 89.2216 28.2427 82 89 115
112.092 84.6191 27.5155 60 65 87
107.591 89.8295 19.6663 217 26 42
113.307 84.8472 54.5668 187 155 134
95.045 93.0512 34.5275 243 182 181
96.8746 91.0185 26.1312 94 126 173
102.796 90.5502 3.36445 48 44 59
103.787 93.6712 12.3165 220 213 221
112.978 85.5832 50.0399 185 153 132
106.828 84.2521 73.6024 70 50 52
118.826 87.3613 7.43527 198 175 169
93.1208 90.5947 24.3899 118 164 200
107.17 82.7973 74.7129 58 40 40
106.191 90.5198 21.3211 217 26 41
110.539 88.372 23.1197 62 70 89
115.64 82.9422 68.4264 75 65 76
107.116 83.0271 74.8451 44 28 28
126.735 100.077 1.72661 225 181 24
100.07 98.2591 39.5353 93 74 78
93.6825 98.0916 41.0644 255 255 255
99.3088 102.262 30.9437 100 76 76
92.9377 100.135 39.9086 254 255 253
99.8598 99.2089 46.7335 108 151 170
98.4763 101.543 33.7759 104 98 98
119.642 99.3668 23.9175 233 222 226
101.093 88.5431 16.9121 199 10 32
87.1787 99.9782 33.8606 25 172 216
89.4305 98.7483 34.6883 23 176 218
91.2968 92.1705 16.3948 71 71 123
87.0659 100.184 33.6412 25 172 216
96.5831 89.9097 16.0949 223 45 61
121.462 108.218 32.518 197 53 44
122.462 96.4975 0.83178 211 190 173
98.2181 103.95 46.8395 103 153 178
100.515 97.327 38.3779 83 68 65
114.26 85.6711 4.80686 197 176 183
90.7939 91.1421 23.5589 58 59 105
89.8704 91.0168 29.2694 97 109 157
112.863 88.8781 0.268332 201 180 189
122.984 110.273 30.866 240 163 147
112.434 88.636 0.798534 200 183 193
112.173 101.724 26.4586 52 28 26
102.445 94.5664 22.9959 238 31 51
120.971 109.634 30.7239 167 25 15
119.394 97.2667 14.8115 212 183 187
91.714 89.7296 12.2223 103 43 77
112.121 101.851 26.2036 55 35 28
120.741 103.388 21.5595 238 211 42
121.129 109.178 31.1099 206 63 55
107.805 100.681 40.8412 37 22 19
107.074 102.36 38.6622 55 40 37
104.567 100.14 34.9683 229 211 199
122.546 97.5414 4.51816 58 49 44
87.1554 94.4728 26.9056 228 211 217
101.81 90.5512 19.5142 235 222 231
119.361 106.746 27.8162 196 49 39
120.569 114.118 29.3139 216 169 141
117.365 98.327 10.1858 33 39 53
89.468 91.5922 18.4422 235 215 226
116.079 96.5171 6.11967 46 48 69
105.123 98.9146 36.0191 223 205 191
116.479 95.6184 7.22437 38 41 60
118.784 98.1695 7.71206 197 158 153
102.227 95.0212 22.4454 238 31 51
90.5387 89.6874 21.3334 239 218 227
103.891 91.7224 5.62572 222 172 183
87.9675 92.5556 22.7413 233 212 219
102.367 84.2554 14.6596 209 134 157
101.977 93.9464 21.2565 220 16 43
120.993 107.422 15.8101 234 206 34
125.203 100.217 0.0446727 223 168 23
103.006 89.2873 7.19541 186 133 139
124.235 102.174 8.25723 76 62 62
116.293 101.393 20.6552 47 49 74
121.365 106.362 17.3149 239 209 37
103.349 92.3855 17.7771 198 12 26
116.98 99.6211 23.248 12 18 30
117.557 105.827 22.5345 210 67 59
105.42 88.8278 8.15953 173 141 152
115.647 110.147 31.9647 81 69 71
91.6037 91.6124 17.7847 76 63 93
121.693 108.38 28.2868 221 170 143
119.507 106.94 23.7206 211 159 137
99.0633 94.2164 28.1495 245 180 152
119.489 106.99 23.4887 211 159 135
120.042 106.527 23.9815 205 160 137
113.111 97.8883 26.4456 103 87 97
94.326 88.1699 19.2912 159 204 237
117.949 97.195 17.6145 70 74 99
112.898 101.4 22.6317 71 54 62
117.91 99.4581 20.3598 45 53 74
110.588 94.6509 19.2772 69 70 98
114.166 105.241 20.8149 201 136 94
106.457 88.3386 15.773 230 39 54
112.312 99.8252 24.2579 86 81 87
96.0555 94.4216 33.693 255 225 208
110.731 94.4958 21.0561 59 65 91
101.797 91.7749 20.3137 237 220 228
111.27 94.7839 17.7523 69 74 96
114.804 111.7 33.8807 85 73 77
113.146 97.8034 26.4591 103 87 97
94.4884 89.6119 12.8541 151 183 222
109.294 99.7412 25.3915 195 113 76
115.142 108.29 35.3862 89 74 77
94.3375 99.9878 44.5261 90 79 85
90.1906 89.0247 19.022 236 213 223
94.1294 100.396 43.9301 107 98 103
97.2766 88.7863 14.315 255 248 239
109.941 89.3803 9.36988 75 80 100
114.366 104.73 22.1293 195 126 85
93.4792 91.475 15.6896 148 192 227
102.354 98.2946 35.8615 233 224 215
100.691 93.7189 26.7122 210 176 166
97.9753 102.187 46.2333 210 236 253
120.744 109.438 27.0178 228 168 140
109.951 97.5985 23.6794 46 39 55
107.502 96.4514 22.6831 144 27 36
109.613 88.3313 10.126 85 86 107
122.128 103.306 4.0247 71 59 59
98.7891 94.9343 22.7724 196 5 39
104.713 86.8418 15.4245 195 140 143
107.278 96.9509 21.7783 149 25 33
104.083 87.43 9.11148 189 146 156
99.8145 89.2663 11.3112 240 202 191
100.867 87.203 14.265 234 196 185
103.255 99.5912 34.4253 226 216 206
115.964 90.8026 7.90327 60 47 56
116.608 89.2458 5.5861 57 44 51
99.0077 90.9289 10.3604 255 227 218
114.934 103.406 31.7503 174 142 121
109.683 98.2206 22.7514 68 64 78
115.035 104.688 25.569 117 62 41
111.05 89.4433 3.83131 26 22 36
120.183 92.3047 9.30077 210 178 179
92.4636 90.5576 31.0353 171 206 234
99.2961 97.799 43.6371 189 209 218
104.5 86.9053 4.60332 38 36 58
107.006 85.0621 0.411081 222 212 223
107.158 86.3107 6.50243 19 12 43
97.1223 91.8333 15.298 255 85 116
109.942 113.695 42.3109 29 23 25
101.131 88.2021 12.7205 238 198 190
98.1459 89.7881 16.5321 190 53 79
118.951 95.5002 4.69114 202 167 163
115.564 88.4514 5.15852 68 55 64
113.058 110.313 42.7018 247 217 41
103.731 88.8533 12.7072 91 17 16
99.7279 94.8614 24.6194 255 167 182
119.963 96.4847 8.20333 198 173 169
100.319 88.2769 12.2831 201 156 151
102.529 85.4373 16.5662 236 213 205
92.3956 92.8273 34.9143 119 142 184
99.5937 97.6081 44.6398 165 194 208
96.9436 100.707 44.6945 222 249 255
108.81 87.2392 5.99471 29 21 34
105.416 90.2509 16.2633 226 34 47
118.875 107.928 31.1413 171 134 118
108.439 90.905 6.42155 82 68 81
118.154 109.924 28.8731 169 131 112
115.328 98.3325 21.4792 64 75 103
109.196 87.7033 4.01752 37 27 38
98.9466 87.3957 10.9617 246 177 182
100.737 83.2097 13.4433 52 15 67
103.752 104.064 45.8299 38 28 27
97.7198 85.8491 14.0979 175 113 152
100.301 91.742 31.2306 239 185 157
98.8343 104.152 36.3264 172 200 214
104.26 92.6943 24.123 223 30 47
103.2 94.9251 20.6892 223 36 53
120.918 106.175 23.9877 187 144 128
94.6302 91.6858 19.7484 116 154 190
95.8747 88.9629 26.3359 137 172 210
86.099 91.9749 29.7548 230 200 208
91.7195 96.1709 29.7151 171 200 242
101.516 103.885 47.623 45 33 35
113.42 96.826 20.7366 90 99 128
96.3355 96.1602 23.8917 118 142 188
121.365 102.321 19.5625 238 210 40
117.08 84.9377 1.79185 65 53 63
100.046 89.2422 19.9042 221 68 88
94.8362 91.299 20.5766 141 175 213
104.388 94.7538 20.0629 255 196 199
107.915 92.0543 5.07357 154 130 143
97.7776 88.7879 10.073 230 162 163
97.2536 84.6674 17.8547 134 107 140
100.68 89.3622 15.3305 243 45 68
109.635 88.236 2.14112 36 28 39
100.421 95.7538 35.5782 147 159 175
103.837 92.5393 20.7124 226 170 179
105.094 94.1935 21.0803 164 9 23
105.585 94.7383 21.8112 151 30 39
102.67 87.4826 11.7235 232 159 170
97.4494 95.6729 36.2617 233 237 246
105.698 96.8283 36.1192 231 212 195
97.9765 86.9842 4.82498 221 55 131
93.9389 88.9932 23.0774 130 164 199
100.444 102.174 43.689 149 188 205
110.964 86.2479 6.6696 34 29 36
117.719 109.523 28.7421 174 132 108
113.849 110.644 40.975 77 61 28
93.3685 90.0404 22.1513 163 199 235
98.2902 100.119 30.2866 179 195 211
109.124 108.851 40.3283 41 27 24
101.252 100.461 45.8249 143 181 202
105.243 94.8334 20.7323 172 16 30
109.104 104.462 44.1014 26 16 14
95.76 92.4487 20.8567 115 147 185
116.511 93.5382 4.5506 167 134 129
94.7673 91.3278 29.6665 195 227 255
122.802 107.687 23.7893 80 69 67
115.079 97.6265 17.2074 75 82 111
110.67 106.101 35.3629 60 41 35
109.78 108.309 41.9793 32 20 20
109.524 105.175 42.9838 37 25 25
110.526 85.3689 2.43643 225 215 223
99.8976 89.0969 7.52407 220 139 148
115.562 95.8898 1.59614 157 124 119
109.198 88.9583 0.218537 39 31 44
110.374 103.145 28.8272 188 155 138
120.917 104.617 23.0187 153 130 114
108.069 89.5749 15.6398 235 48 59
109.767 98.0148 19.0599 48 51 84
92.4757 94.193 18.3433 174 210 242
97.9841 86.9698 4.44077 221 54 126
110.662 101.771 39.9683 48 30 26
109.416 104.758 36.4697 56 38 34
103.835 85.1456 15.0206 241 171 182
108.221 99.0383 36.0074 204 167 149
96.3498 86.3439 15.5033 125 138 173
92.1734 100.2 43.5555 70 69 77
112.237 102.257 39.4998 43 28 25
108.597 109.18 41.5472 43 29 29
97.9113 91.0796 27.6331 159 180 227
97.696 87.6433 9.92141 85 47 96
104.856 88.1227 17.7224 176 47 52
119.736 86.7296 2.62321 68 55 62
96.3758 94.8434 26.8356 127 146 188
111.963 95.3024 7.50002 77 83 107
108.387 99.3547 33.0315 212 177 158
110.801 105.779 35.3692 57 39 35
104.54 88.7756 16.9976 166 21 26
111.067 94.998 22.8005 32 37 66
113.38 105.593 34.5713 60 41 34
94.8124 89.0046 19.2642 181 220 255
95.755 94.3958 21.1164 159 192 237
114.501 94.0719 3.71894 129 104 107
95.7513 94.9999 21.4234 137 168 214
108.633 83.5246 2.07909 224 214 223
109.972 101.467 32.2718 187 154 137
92.8698 93.4591 19.7428 109 150 182
104.191 101.576 42.1545 149 181 196
105.255 93.0395 20.0513 219 29 41
127.452 98.7025 2.3269 72 55 48
107.43 86.9542 1.91624 228 218 229
112.345 104.915 35.995 54 39 36
112.407 106.441 40.9288 59 42 34
99.4307 89.9881 26.6418 221 43 69
99.0053 88.7878 24.5632 205 32 52
100.631 102.523 53.7184 56 40 41
111.471 107.083 39.6521 61 43 39
108.133 92.9055 21.6891 191 9 21
88.6844 96.0175 29.355 106 128 175
107.96 93.288 21.4826 192 12 23
104.311 107.013 43.5257 37 27 25
105.708 105.367 48.808 92 76 76
110.932 108.426 38.815 60 42 38
106.937 108.718 50.83 1 77 91
107.549 93.2875 19.5145 215 29 43
102.411 86.0067 14.3813 216 149 158
103.42 102.097 41.0826 115 147 162
102.538 105.018 51.1429 57 41 41
100.193 96.2508 32.5897 194 184 183
106.598 90.2614 16.9649 222 32 44
113.453 103.394 37.5726 59 38 33
108.634 105.795 40.6535 31 17 16
98.5556 86.634 12.1027 243 170 181
112.443 105.927 33.9787 49 29 20
93.7023 96.641 25.0222 130 157 202
97.1331 94.8634 22.0301 156 184 224
107.773 92.2765 19.0897 212 27 33
118.185 87.7987 4.82119 66 55 63
108.015 93.9173 19.2156 188 3 17
106.312 101.252 46.352 62 78 94
95.1516 91.0808 25.4178 158 196 233
112.339 104.891 32.0911 181 148 129
102.77 79.3289 3.26428 240 231 234
105.129 88.0745 4.40613 214 207 215
96.1471 93.0503 17.6788 215 230 253
113.98 105.445 28.4036 178 146 123
103.141 102.711 40.6527 141 172 190
102.213 104.747 37.9464 163 196 215
104.176 85.0214 4.90708 52 45 61
110.94 85.1449 5.88046 41 30 44
101.486 84.2328 6.18985 64 55 76
102.085 108.688 49.2884 33 20 29
92.4316 89.3648 28.2561 137 169 210
111.426 92.704 19.2623 59 65 89
103.911 89.7254 16.9499 237 154 162
109.04 90.3485 16.7179 193 28 44
110.865 108.702 40.1172 57 39 35
107.279 91.2248 17.4264 222 35 46
108.975 95.8671 12.6656 61 66 85
111.51 94.2256 18.7602 59 65 87
119.641 94.9802 7.53487 218 200 200
107.985 91.4769 17.2221 207 17 29
111.086 93.5042 20.3757 61 66 88
117.089 95.3991 1.43756 174 145 139
106.893 85.298 0.768187 223 213 222
110.433 94.9898 15.8028 70 66 91
108.044 86.8549 4.03808 224 214 223
110.448 94.9728 18.1229 65 65 89
110.505 92.3929 17.3472 76 78 103
111.377 103.356 36.6739 47 25 14
95.969 87.0504 14.8072 165 193 233
96.3748 94.8453 26.8189 127 146 188
110.056 94.1724 17.4604 67 61 89
104.341 104.623 51.813 87 73 72
102.175 86.5342 17.0891 142 28 28
104.466 108.372 51.9379 84 77 93
108.718 103.164 30.2269 193 165 141
106.185 102.745 48.4871 79 69 67
106.894 93.8643 13.5178 215 28 39
121.223 100.426 9.63985 83 73 71
110.128 91.7348 16.4453 71 73 94
106.419 109.688 44.99 53 35 33
104.777 99.6769 35.5224 225 206 192
110.424 106.075 28.5567 181 148 129
117.206 94.1259 1.80652 195 170 173
105.728 92.5265 19.1406 211 24 35
106.876 84.4547 0.995461 223 213 224
97.5752 93.9948 23.5462 152 186 232
110.491 92.9718 11.9949 64 69 89
97.0594 94.6369 20.2903 204 220 253
111.354 103.803 30.8713 180 147 128
114.98 92.9136 4.45182 146 114 115
117.422 109.489 27.4362 246 214 43
148.061 94.6284 40.6604 229 188 22
129.77 104.243 32.4948 235 199 40
136.163 78.712 56.7064 198 185 192
100.484 110.796 15.4036 29 17 17
129.794 101.394 31.558 229 195 25
131.285 94.3486 30.9637 51 42 43
140.465 79.9503 51.6239 216 201 198
62.0319 112.18 10.2724 70 77 95
97.7926 103.156 14.3448 50 36 36
82.8339 104.797 14.9363 29 161 210
100.828 97.9712 22.102 231 209 195
122.748 99.2181 27.604 101 85 86
137.711 97.1292 36.3827 64 54 55
139.587 80.4152 49.8605 212 194 192
123.947 99.7412 26.023 226 183 29
119.168 91.5087 31.2385 62 70 93
83.5393 102.156 20.3124 72 72 82
100.974 97.8972 22.1225 229 207 193
140.278 98.0483 38.194 61 49 51
135.426 75.5167 75.9819 85 72 82
139.031 73.5872 81.2956 82 66 77
108.097 85.4803 66.7556 19 160 213
107.358 85.8055 65.2551 18 163 216
139.036 73.5845 81.3705 82 69 79
91.1382 95.5787 38.3822 74 72 86
107.328 85.8186 65.0477 24 170 219
119.525 101.744 25.2696 196 53 47
128.124 85.2659 41.5607 27 17 26
95.8966 118.388 16.9007 56 55 51
98.4062 97.1915 26.9712 95 83 85
136.74 84.9637 41.4256 208 189 183
129.534 87.6438 36.6505 209 183 186
139.76 73.2537 81.9829 80 68 78
124.077 97.0078 26.1757 59 50 55
135.286 95.5019 32.6301 62 57 54
102.275 88.339 58.8319 82 76 86
103.12 87.9657 60.3196 84 78 88
124.188 96.9407 26.3204 60 51 52
96.7509 117.846 18.7934 39 29 28
85.7602 116.757 8.17609 77 71 73
131.142 75.65 85.7276 232 94 146
94.1213 121.616 20.5226 72 68 82
117.793 94.2631 27.7079 84 91 119
87.5445 118.911 9.22744 73 70 79
90.9992 105.759 12.3811 157 194 210
88.3593 118.42 10.0186 74 69 75
129.72 84.1606 44.776 12 7 14
118.954 106.437 25.9769 162 125 106
126.411 103.346 30.4253 184 143 125
104.406 92.5642 36.1084 234 219 226
78.6982 111.332 4.61758 72 70 81
125.928 89.8015 33.5871 29 34 53
134.209 85.5245 41.7418 121 93 89
110.842 94.4558 28.0983 198 112 77
122.866 94.1259 29.554 53 55 67
122.597 86.9995 39.3036 61 66 86
109.806 91.7353 35.1347 222 148 109
132.373 84.3446 42.3382 181 157 157
137.367 82.4508 45.3517 208 189 185
113.644 108.808 25.268 34 21 13
104.431 101.9 17.3707 165 136 120
110.103 90.9092 36.4567 157 97 107
133.48 83.7567 43.9768 188 163 166
98.2614 104.773 15.3741 44 35 36
133.364 85.9909 40.1583 158 130 126
123.735 94.3536 27.2521 51 42 43
133.853 83.5591 44.9274 189 164 167
128.268 101.69 31.8454 232 199 36
138.732 82.8902 43.5364 55 43 43
139.669 82.3744 44.9917 57 45 45
77.9667 114.872 4.32439 71 71 79
113.477 102.992 20.4018 152 119 100
139.586 82.4201 44.7871 57 45 45
124.064 90.2373 33.8356 46 54 77
139.915 81.3429 45.9589 62 52 53
98.7254 116.101 17.977 60 50 49
110.498 111.683 23.2526 44 31 25
123.869 90.3432 32.5555 37 44 63
77.3721 116.202 4.90831 43 59 75
122.435 85.2064 46.7509 211 19 30
128.416 100.178 30.0527 228 190 27
98.2204 113.833 15.6488 33 23 22
87.0815 96.4793 36.9673 16 167 212
105.66 88.7621 51.933 80 77 94
103.548 111.79 16.5836 40 29 25
140.172 90.5375 35.6462 219 170 16
145.011 90.6606 37.5126 220 177 13
140.546 96.6241 37.5123 150 121 45
132.818 92.1754 31.3872 48 45 40
60.8496 122.702 7.17707 69 71 83
104.615 89.239 50.1739 80 78 92
140.497 94.4036 36.162 223 181 19
99.0056 111.016 14.0271 19 10 11
115.762 89.2341 37.2597 211 23 40
120.777 91.8249 30.8971 67 77 104
142.699 90.6883 35.6024 228 180 18
99.4327 115.655 18.7554 45 35 34
107.936 111.42 21.1722 44 30 27
138.243 92.58 34.5872 227 171 26
76.7378 102.641 22.3697 12 167 211
86.1398 112.935 7.1549 83 71 71
141.5 80.4849 49.1307 59 47 49
143.719 81.4201 46.3563 66 56 57
99.5804 114.924 16.4906 33 23 22
81.2023 99.883 30.7913 20 172 222
62.1542 121.191 6.76077 70 74 83
81.6428 99.682 30.9741 20 168 214
99.6 107.475 14.2269 35 23 23
85.9696 113.03 6.64169 57 45 45
131.722 94.0781 31.5816 53 44 45
141.866 85.9889 38.719 62 52 51
97.8622 114.053 15.3721 30 20 19
91.0909 112.502 11.3183 58 46 46
119.635 91.149 3.85941 205 183 185
127.883 102.232 0.883201 225 177 15
127.945 102.227 0.816866 225 177 15
97.9144 95.283 39.7376 103 84 86
97.9522 92.2813 34.1203 189 187 192
125.417 105.343 0.36083 228 185 21
126.197 105.264 1.73143 228 184 25
102.768 87.7751 19.8921 233 35 60
115.727 87.7182 5.06766 204 183 190
101.482 93.9106 35.1921 244 229 224
99.9074 90.7782 26.4948 164 188 216
123.662 96.6588 3.90261 208 179 173
123.738 97.2631 2.70158 210 188 175
122.288 96.7145 1.35895 205 180 175
101.614 93.9081 35.2527 244 229 224
97.7793 90.6158 27.1223 89 79 87
105.221 98.4883 37.671 24 5 7
113.27 90.8885 13.4431 70 74 99
116.386 110.102 24.7901 182 41 32
113.259 91.1264 13.4879 55 59 84
116.892 110.039 25.3453 183 41 31
121.439 95.8383 1.79968 198 169 163
124.797 100.469 1.2574 217 166 12
125.883 100.396 0.700895 214 165 10
107.342 103.054 39.895 28 18 17
125.707 97.5497 0.363954 65 46 42
125.858 97.5425 1.3248 61 41 42
115.635 102.106 25.899 206 142 114
123.652 99.7569 2.18255 52 42 43
123.4 100.092 2.60742 50 40 39
123.552 100.082 3.22295 54 44 43
123.057 100.739 3.85723 51 39 39
126.383 95.4681 7.59694 64 50 50
117.775 111.716 18.6249 212 171 141
123.137 99.5981 11.8116 44 33 37
126.294 97.0422 0.665781 62 44 34
104.612 102.3 47.242 35 21 21
102.498 102.447 43.7368 60 42 42
112.845 105.892 27.5881 163 127 105
103.78 85.5032 19.404 211 145 149
103.167 86.2735 19.6314 229 164 170
108.78 114.811 46.1689 35 21 18
115.52 108.592 33.0056 61 73 95
126.167 97.0478 0.196302 65 48 41
123.289 112.368 5.83385 233 198 18
118.008 102.187 24.3761 87 67 68
105.472 101.363 40.6917 136 144 155
117.989 102.188 24.4334 106 80 83
119.16 109.325 23.665 218 174 147
114.638 99.9551 19.801 16 19 38
98.6218 97.0124 39.3614 226 244 254
117.799 109.492 21.7989 244 183 152
104.627 96.0414 36.1186 226 205 188
124.418 90.6211 1.20303 61 42 46
113.932 105.748 33.6118 43 25 25
112.759 105.861 32.1135 39 24 21
113.779 88.6193 7.67763 41 33 46
106.5 113.89 50.1865 82 200 240
108.845 91.2271 20.0042 223 33 43
99.9813 100.236 42.3026 145 173 185
113.412 108.834 29.425 93 100 110
123.215 92.6614 2.89603 211 190 187
109.055 110.937 47.8571 37 34 27
108.983 94.8611 22.9412 153 17 29
110.536 117.479 48.399 7 19 31
113.135 90.8886 13.1462 70 74 99
123.648 95.7621 6.87121 193 163 155
109.656 94.8437 24.1984 177 76 92
107.423 97.788 34.3298 195 160 140
116.042 92.3418 16.9006 54 60 86
128.843 106.148 4.26995 234 194 21
117.823 104.967 19.3965 168 135 82
99.7754 88.569 28.615 89 77 87
117.093 101.716 24.9693 79 51 50
121.356 98.5 6.53989 47 33 33
116.158 103.998 29.4876 144 96 84
119.444 87.9036 3.3585 217 197 199
112.736 95.7143 19.5127 54 58 83
100.528 86.1279 24.1028 110 58 80
120.226 94.0409 5.84639 106 81 76
107.985 110.713 49.6442 72 51 56
98.6808 88.5556 26.4176 94 81 88
106.92 113.292 54.1276 27 170 214
105.782 87.9334 19.6952 229 128 132
123.89 108.382 11.4333 205 175 87
109.034 117.729 46.1907 38 25 34
120.286 98.9598 15.5553 29 18 22
105.224 100.96 38.0061 49 37 37
130.001 97.9626 4.44246 67 53 53
127.172 94.6989 1.12933 62 47 44
106.334 111.313 52.235 19 170 215
104.849 108.952 55.8432 83 78 85
100.19 84.9028 15.3615 237 69 146
110.268 115.997 50.9308 57 67 77
122.798 89.7375 5.37176 69 54 57
114.803 104.114 27.3532 165 123 107
105.132 110.354 56.6897 81 76 83
100.799 84.9233 16.9283 235 73 148
110.891 102.948 31.9173 39 23 23
106.152 110.346 54.9865 53 79 102
112.761 103.422 33.3004 40 19 14
111.695 94.0717 16.8855 82 87 106
101.172 85.5775 18.046 224 80 139
113.456 95.2052 16.7429 95 99 126
126.844 110.973 1.47229 237 198 32
129.119 95.9657 9.14428 66 54 54
111.545 112.351 44.6752 33 28 25
128.298 105.324 5.94703 233 191 21
106.228 87.9408 21.1043 217 100 109
127.307 111.472 1.46017 87 54 21
105.124 95.3004 33.3214 211 179 154
107.829 88.7653 19.8973 230 39 47
112.31 83.9875 1.09799 68 55 64
113.392 104.708 35.5391 41 25 25
106.854 103.091 39.9235 25 16 19
105.17 93.7075 28.501 210 136 91
100.971 84.1324 12.6716 175 78 123
110.345 109.884 39.0665 46 32 29
112.038 116.309 47.703 36 26 25
125.119 110.241 3.64053 68 42 5
111.503 109.745 41.0314 52 38 35
125.937 94.1642 1.82419 60 45 42
112.568 113.049 43.8077 18 10 8
102.952 85.4777 18.5166 200 114 127
111.2 88.1001 8.59363 70 67 86
111.624 117.432 44.075 33 23 22
113.238 96.222 20.3167 105 111 137
127.642 98.0845 9.46189 66 52 52
108.77 100.529 33.2129 32 9 1
107.689 103.239 42.9085 40 28 28
107.297 104.332 41.314 25 13 15
110.164 96.3007 30.1841 204 177 166
111.432 99.2099 27.1093 169 136 119
111.474 85.8521 9.46249 65 54 68
113.902 94.0246 21.5042 62 64 87
99.2339 86.0934 21.2115 239 84 152
107.641 89.6551 20.7005 216 27 34
104.097 92.2849 27.9844 223 145 97
109.284 109.458 48.9441 44 30 30
114.347 95.1796 18.3949 80 86 112
107.868 109.887 44.5075 56 44 44
127.946 99.0863 0.98786 218 182 88
112.702 84.004 3.14878 234 223 229
121.225 98.5068 7.52598 38 29 30
109.24 109.463 48.2782 49 37 37
126.806 94.0337 6.77543 66 52 52
120.604 103.451 14.0435 55 44 48
126.922 108.852 1.12263 232 193 28
108.797 105.183 42.6843 21 11 12
106.999 90.9865 21.6487 223 29 38
123.47 92.6579 4.33262 212 188 184
112.832 89.5499 14.1153 78 80 101
104.318 105.965 47.4027 59 45 45
109.396 108.773 46.1496 45 33 33
108.015 90.9845 22.8268 226 39 46
118.895 99.3946 10.4967 28 19 22
108.475 90.5129 20.7136 221 34 41
102.929 104.862 49.5083 66 52 52
129.056 97.8181 8.38631 62 50 50
111.183 101.766 27.9373 165 134 116
101.575 106.189 54.3208 58 53 50
106.485 110.307 54.924 40 185 230
120.76 103.438 15.1038 52 43 44
121.606 90.9842 4.79047 206 185 184
121.528 103.373 16.5524 59 53 53
111.513 83.954 0.628915 249 238 244
104.937 105.922 49.3257 50 36 36
107.646 103.469 37.6361 35 21 20
107.528 108.131 43.7595 35 23 23
103.292 96.8134 52.8975 213 232 246
103.259 96.8194 52.7683 200 222 233
143.337 98.9762 55.0019 228 189 26
135.339 99.1268 50.8213 221 188 33
104.827 91.8325 43.2796 218 209 210
103.28 98.775 54.5921 222 242 253
103.106 98.971 54.542 214 236 247
104.232 88.0408 39.6231 81 75 87
111.607 96.32 49.2792 62 48 48
111.443 95.6834 49.6119 28 16 18
111.155 96.4052 48.648 27 15 15
108.457 93.0958 44.8535 231 209 195
104.98 87.9492 40.8861 83 77 89
108.499 96.2244 44.6297 64 46 44
127.714 93.5078 43.3238 255 251 254
111.955 97.3717 48.5758 59 45 44
128.883 102.755 50.601 184 42 41
113.496 91.1825 45.9597 233 183 156
102.986 99.7701 55.0919 228 246 255
113.157 100.462 48.3656 36 24 26
146.442 99.0906 55.7793 70 56 55
114.635 102.616 49.1518 60 49 47
107.423 99.4715 52.9604 27 20 27
106.859 84.5567 26.5345 183 109 122
111.989 85.7719 29.1719 169 9 19
115.915 85.901 17.1279 42 39 48
101.547 91.3361 49.5744 56 51 58
111.555 88.2921 33.1462 207 22 36
131.494 92.0915 40.0392 27 26 24
131.697 91.4208 42.1997 27 21 21
107.017 93.1641 48.8036 242 233 228
101.912 91.2842 50.1102 247 246 251
105.877 87.5371 34.807 178 131 163
110.723 114.014 49.8113 62 60 65
110.646 93.3091 48.851 221 203 183
120.576 93.2058 42.4123 102 108 140
126.393 91.9893 39.6732 34 42 63
127.371 91.817 41.541 28 33 52
103.531 94.9091 49.4267 215 229 238
120.608 93.2001 41.7365 111 123 147
104.459 94.7526 51.482 198 218 227
108.991 96.5803 50.1275 121 148 157
122.927 101.686 49.8352 30 23 15
109.564 96.4731 51.7251 123 151 162
103.582 96.7665 54.9869 214 236 247
113.836 89.2225 31.8426 227 35 48
116.274 91.6595 38.5217 173 62 78
109.164 96.3943 52.9035 157 189 200
119.089 86.9328 23.8595 38 32 42
124.804 93.2907 40.4711 71 83 109
115.653 91.0845 38.132 197 10 19
111.404 110.767 51.6067 24 20 21
104.666 100.95 53.4678 132 126 130
109.402 111.352 48.0073 31 23 21
120.497 85.905 26.4931 35 29 39
138.595 86.2601 23.3033 66 52 51
112.034 88.6241 37.7556 255 210 208
103.189 91.4094 47.8888 110 105 109
118.834 84.4658 13.5673 60 53 60
114.248 97.1761 47.9196 43 29 28
111.654 109.805 50.3435 41 36 32
102.868 87.0065 34.5224 91 81 90
106.564 107.173 54.5756 75 65 64
125.524 93.1581 42.5964 73 83 108
106.031 100.661 55.3501 67 57 58
112.032 110.583 52.8168 37 37 39
121.452 96.4995 45.3734 170 131 114
135.453 91.9765 41.044 51 39 43
100.466 108.886 50.5025 28 18 19
104.277 100.264 54.1063 153 171 183
129.689 89.1162 34.4861 143 117 116
113.941 111.508 49.0054 22 18 17
115.082 96.6617 47.6708 49 30 24
105.402 102.033 54.5944 73 58 61
113.766 96.9369 48.4483 53 37 37
111.812 87.3495 28.8778 229 43 56
102.076 88.3046 35.7974 78 72 82
102.684 106.156 52.6002 39 29 30
116.673 96.0455 46.7022 179 147 132
140.867 90.9276 40.0168 53 43 42
108.572 96.5044 52.1842 146 178 189
114.934 114.983 47.1944 31 22 23
111.532 93.3642 40.6436 196 159 140
121.133 98.9898 46.718 159 127 112
111.055 108.117 48.5647 32 23 24
119.665 99.158 49.8153 38 27 25
115.785 107.262 48.1528 38 27 25
141.715 90.7668 41.261 64 50 50
114.995 97.9611 47.0551 40 26 23
118.893 104.381 53.163 44 33 31
113.672 92.6081 43.0795 204 166 147
111.514 100.597 53.4769 16 7 10
106.605 96.13 49.5518 164 190 205
118.622 95.9044 43.0405 167 132 113
109.509 101.037 50.6962 74 64 63
113.706 93.0009 45.2764 186 154 133
106.471 107.874 51.6326 39 29 28
112.679 99.0134 50.1449 35 25 24
136.833 88.5542 33.8512 57 47 46
114.853 104.663 50.1287 27 17 16
107.663 107.562 53.7082 42 32 31
113.986 104.114 51.899 20 14 14
113.811 107.366 53.2853 16 6 5
113.063 104.343 50.2965 19 13 13
112.136 100.065 48.1668 29 19 20
124.322 84.0242 14.738 69 58 64
115.798 104.422 52.0155 20 10 9
113.867 104.231 50.692 19 13 13
128.784 106.501 53.9591 72 66 68
114.199 104.826 51.2255 18 12 12
113.397 87.7788 34.5376 210 19 34
112.015 104.604 48.348 16 10 10
115.377 102.438 50.1419 24 13 11
116.953 104.128 53.4492 60 50 49
114.668 102.097 52.5884 21 12 13
107.058 105.242 52.8977 51 41 40
108.144 105.098 53.6053 50 40 41
106.528 107.816 50.2872 47 37 38
113.28 93.072 44.6056 196 161 139
116.529 102.544 51.4878 41 30 28
100.952 108.761 51.7862 73 64 65
115.356 99.9232 52.9891 40 30 29
113.862 100.887 51.471 28 19 20
117.178 103.463 48.5031 43 33 31
120.836 91.2556 11.6692 203 181 183
100.624 97.3076 47.6596 231 245 255
100.267 97.2016 46.7671 231 245 255
98.9227 100.243 48.3209 221 236 243
99.6994 100.439 50.2637 227 240 246
123.884 108.004 40.855 218 186 161
119.203 97.1598 26.49 206 182 172
105.237 96.8238 37.4515 33 17 18
106.436 97.2109 40.3767 73 55 53
106.601 97.2639 40.7253 73 55 53
124.835 95.3868 17.4435 196 171 164
115.131 90.9949 21.2394 32 32 56
108.984 101.383 42.8838 36 20 20
118.964 97.065 25.6816 236 217 211
128.136 94.4271 10.7002 64 49 52
104.775 87.6696 31.0614 208 130 170
126.209 100.467 27.0549 44 32 34
110.437 104.023 43.3736 56 42 41
128.499 99.5768 18.5377 220 166 14
129.333 99.9285 21.0596 221 167 15
110.243 87.3603 23.9267 179 12 22
105.296 100.681 48.2313 32 18 17
105.264 92.8806 34.6178 254 221 206
125.265 108.791 40.0801 72 58 55
104.757 100.536 46.6914 50 34 34
103.121 93.7893 40.1748 253 235 231
103.344 100.308 45.7236 24 10 10
100.444 101.842 45.7334 74 55 59
121.646 103.936 35.8777 183 129 119
99.8397 105.705 50.1461 82 73 78
101.167 106.547 52.0361 85 69 72
108.944 114.572 50.0074 65 54 60
124.402 90.1594 9.01621 247 231 232
108.664 90.569 33.0083 188 125 133
118.285 85.8396 4.40163 64 49 56
103.824 97.3867 42.1094 169 191 205
102.307 102.713 49.9097 76 60 61
124.017 89.9406 7.51888 58 42 43
123.534 96.4554 23.6258 156 121 115
114.583 96.3542 31.3267 128 120 141
104.257 90.8145 37.5089 235 196 167
120.643 105.408 37.4265 204 94 81
101.076 91.6954 42.7495 252 232 243
102.094 102.232 50.3013 27 11 14
103.656 97.3348 41.1217 136 154 168
106.899 111.553 47.1811 19 0 6
113.567 98.1871 31.9337 174 136 115
117.546 93.9567 21.5036 69 73 98
103.201 103.029 44.3347 23 9 9
104.145 97.4859 41.8001 145 162 172
123.273 89.2312 6.26563 53 39 39
123.455 96.4206 22.8477 166 129 121
130.511 109.218 41.1867 233 195 24
127.307 95.3374 16.956 50 34 35
106.407 113.237 50.3196 80 72 83
113.428 98.1393 31.9011 173 137 115
118.37 110.623 40.2219 69 68 82
107.289 111.969 45.9062 30 20 21
123.562 95.616 21.6088 170 136 127
108.384 98.3402 36.8929 37 19 19
98.9825 90.946 39.0084 189 86 133
102.667 103.079 50.0822 55 41 41
126.493 92.6991 10.4813 65 49 50
112.416 94.7962 30.6433 117 99 111
127.52 109.323 36.4714 232 194 35
128.4 109.364 38.6432 234 196 33
109.806 87.5985 26.4758 207 86 93
127.133 106.667 35.1051 59 49 50
113.329 111.719 40.4244 24 162 209
130.388 105.036 34.8438 64 54 55
105.531 117.742 41.0665 19 13 15
115.3 111.321 44.5537 24 172 218
103.218 103.558 47.089 32 16 17
131.453 107.752 33.2714 79 60 56
119.419 91.5445 17.7687 161 139 151
111.135 99.8913 39.1066 38 22 23
130.417 96.0531 16.2608 64 52 52
111.395 112.28 47.506 49 37 41
108.979 97.8573 36.4303 41 12 4
109.672 109.473 46.3338 41 29 31
107.98 110.855 45.5837 56 44 48
102.572 103.414 45.9298 68 54 54
111.665 100.933 36.66 34 18 19
107.548 94.8638 38.5151 210 174 152
106.971 107.701 41.3861 22 10 12
120.12 91.2624 11.9026 201 174 181
103.05 105.643 51.4081 48 34 34
128.927 108.853 36.4436 229 192 23
99.913 91.5944 42.5463 231 67 138
106.461 100.317 39.0288 40 21 23
110.425 98.8998 39.4036 42 22 21
129.491 108.101 38.3061 243 204 83
114.936 110.049 39.1953 23 160 212
114.959 100.367 39.1262 165 128 109
108.787 109.336 43.9276 52 40 42
107.36 92.8841 34.7866 210 176 151
130.036 108.237 39.8113 237 198 45
101.497 108.477 46.9139 58 44 44
119.874 110.027 38.4155 72 64 75
100.877 108.725 53.2734 70 50 61
109.778 109.923 46.887 36 28 26
108.284 94.1999 31.3852 208 166 152
103.17 108.249 46.932 85 71 71
100.873 107.38 47.5357 45 31 31
106.478 107.812 50.236 48 34 34
111.679 91.0077 26.9165 237 46 53
122.624 110.808 38.8906 77 66 72
130.151 109.135 41.0646 234 197 30
108.17 93.1997 36.506 215 179 155
123.121 110.891 40.5543 79 69 78
109.981 90.1401 23.3096 232 46 49
120.787 90.4933 10.5936 210 190 192
96.8744 105.67 49.9757 37 176 219
103.524 106.233 46.9903 74 58 59
113.715 100.601 40.3183 29 6 0
103.037 106.227 46.5787 32 16 17
106.276 93.2637 37.6309 240 212 198
108.803 105.495 42.7258 24 14 13
109.38 105.26 45.4854 26 14 16
110.316 105.815 46.7823 23 13 12
107.686 101.028 40.2894 31 19 19
107.907 115.858 41.466 42 34 32
127.111 95.24 14.4618 60 44 44
113.836 85.0094 11.9894 228 217 225
110.396 116.003 47.9239 51 39 43
126.817 105.098 33.9113 60 50 51
112.797 114.755 40.8072 26 20 30
105.962 92.3397 30.4453 253 201 177
103.782 107.251 49.4813 118 104 104
129.075 95.3608 12.5789 70 53 59
112.006 107.929 46.6961 67 51 51
111.352 107.127 45.7496 62 48 47
125.341 100.013 26.2126 40 30 31
104.337 108.434 49.5288 88 74 74
111.192 109.429 42.3763 38 23 26
109.594 103.822 40.6924 35 19 19
109.071 106.135 40.5587 37 23 22
107.949 108.963 44.1396 16 6 7
112.306 107.985 47.7581 54 38 38
108.038 103.658 41.3498 29 17 19
110.187 106.9 42.3085 68 52 52
121.592 101.242 31.7915 65 59 63
111.394 107.136 45.5927 43 27 27
112.567 97.0879 33.061 171 135 121
97.8835 111.302 46.8522 32 179 231
110.531 103.996 42.0985 53 35 35
108.873 101.353 43.0228 44 28 29
105.306 107.281 46.3821 78 64 64
108.675 102.055 42.7906 25 13 15
112.811 86.2498 15.1698 55 48 64
104.922 107.544 46.0768 40 26 26
104.301 108.428 48.7969 57 43 43
107.702 110.007 45.086 30 13 19
110.502 103.989 41.4936 34 16 16
110.477 103.738 39.2965 66 48 46
106.776 108.989 44.7132 44 32 34
109.767 114.39 41.4422 38 24 24
104.659 107.138 48.6304 70 56 56
112.212 106.121 43.6981 46 30 30
134.469 103.837 11.2276 226 183 18
131.37 110.491 20.9108 230 188 28
131.301 110.486 20.8398 230 188 26
131.747 110.516 21.1865 231 189 29
123.204 108.249 31.6216 212 171 139
126.333 101.753 17.2158 39 29 28
109.083 96.299 45.0066 29 18 22
124.249 109.184 28.3107 70 63 70
124.285 105.958 26.2316 212 163 34
123.891 105.92 25.5701 211 159 37
109.443 96.8604 44.888 28 12 13
120.323 107.07 37.3214 187 155 140
121.014 107.13 38.3036 178 149 135
121.578 97.0672 26.9075 193 174 160
128.601 98.6068 12.6321 50 41 34
122.096 105.797 34.4342 215 137 117
111.957 104.137 45.9626 33 21 21
134.564 101.259 5.45972 229 182 16
111.651 89.727 30.169 215 28 45
110.863 93.6861 35.2249 216 171 148
110.067 96.9531 45.2466 51 33 33
107.089 88.7512 37.4395 92 80 90
110.819 92.2069 32.1917 255 227 224
107.396 100.434 50.6568 41 27 27
129.792 98.794 14.484 55 43 43
106.975 100.382 50.3125 58 44 44
107.097 115.471 47.2973 70 59 65
114.641 89.0226 20.8984 72 73 91
129.28 105.026 26.504 56 47 48
107.381 93.5558 48.0313 246 235 231
122.297 105.817 34.9691 212 139 120
106.572 99.9813 52.1013 42 32 33
137.467 103.63 8.57571 230 188 18
118.929 105.716 41.0178 39 22 15
109.577 93.9052 45.7025 231 209 195
107.295 96.9405 49.1368 155 181 194
121.228 105.714 33.1479 184 76 64
106.125 100.939 56.4267 74 65 68
105.968 88.6743 38.2388 94 79 86
108.985 90.2024 43.8295 223 173 146
118.17 92.6612 17.4263 57 63 87
120.031 105.431 34.5139 170 127 108
116.564 104.968 37.8966 36 22 21
133.422 97.8236 2.58603 59 49 50
117.585 102.847 42.1081 34 23 21
120.631 100.319 30.7436 52 41 47
112.731 91.533 32.8748 255 214 210
118.815 85.5779 0.388799 67 56 60
120.183 114.126 40.1201 21 163 213
111.327 97.7835 43.0766 41 29 29
121.236 101.186 31.3377 86 55 52
120.158 101.046 30.0632 75 48 37
118.121 116.235 40.6959 48 159 205
111.958 98.1154 42.8847 21 10 8
111.229 91.2495 30.4786 191 67 75
132.203 112.168 23.5582 231 194 27
116.402 95.9235 33.4026 127 115 127
108.01 96.8717 48.1445 119 139 148
119.977 110.973 34.7466 50 68 82
111.701 95.3665 42.9246 201 161 135
118.1 110.767 37.5875 22 159 211
119.939 90.5937 11.9782 171 148 158
118.505 93.1377 20.4007 68 74 96
122.421 91.6306 12.8631 182 160 163
116.282 98.6433 35.3342 170 132 113
132.66 98.3402 2.64159 57 47 48
126.464 96.5328 16.8524 160 130 122
129.623 113.998 24.3089 233 199 31
135.324 111.458 22.8581 69 52 34
114.611 111.461 39.3927 31 162 214
129.367 102.186 14.5068 55 39 42
119.768 90.5587 12.1777 169 148 157
121.086 90.8294 14.0401 167 144 154
118.302 92.7527 27.1536 91 94 111
113.709 98.5584 44.1456 46 31 28
132.881 103.375 14.4146 223 177 19
118.797 88.2673 16.005 41 35 45
129.827 102.246 15.9022 52 47 41
115.065 102.558 38.4315 36 22 19
116.631 93.2461 29.3562 61 54 72
119.186 97.0387 27.4303 80 82 107
115.162 88.2579 16.3288 88 89 109
112.376 116.951 45.3064 31 25 25
109.505 100.727 44.8695 25 16 17
115.825 98.5702 40.147 158 125 106
115.131 92.8206 33.8144 199 14 20
136.791 104.951 15.4278 230 187 20
111.478 93.8408 39.412 194 157 130
104.017 108.51 52.6791 59 47 47
116.82 111.978 44.2893 24 165 211
130.988 102.397 17.6354 52 36 46
110.243 100.817 45.9426 28 19 20
105.332 102.927 53.0543 69 57 59
114.349 95.7665 37.5046 170 131 114
120.178 110.879 38.2394 23 160 212
117.411 104.059 40.2806 33 21 23
113.343 92.4936 30.9742 227 40 49
125.301 93.2444 3.92903 225 207 203
111.517 93.8475 39.5493 187 150 123
112.387 109.702 49.3631 36 24 26
118.05 101.823 34.123 152 116 94
114.764 97.3786 34.6159 163 128 108
114.291 92.6669 31.952 212 26 37
129.616 107.663 20.2213 63 54 55
109.944 94.736 41.3997 196 159 132
106.287 96.2173 48.564 164 184 195
113.285 89.4268 24.719 222 33 40
118.953 95.6827 27.7513 88 95 111
105.478 105.309 54.9076 78 66 68
114.961 89.7686 28.0548 219 29 41
113.325 100.142 40.3417 40 26 23
106.689 95.0361 50.8792 189 212 220
114.645 104.733 42.0805 40 26 25
113.683 91.3268 32.4457 215 28 37
109.494 109.718 49.9271 14 5 6
111.655 104.456 47.6814 25 16 17
126.952 93.5641 7.10787 185 167 163
111.64 109.726 45.2952 28 20 18
113.784 103.817 42.5965 41 27 26
111.675 109.728 45.3992 27 19 17
113.838 108.649 44.7149 34 22 22
107.87 108.719 51.34 55 43 45
110.969 109.684 44.1283 33 25 23
111.586 104.449 47.1885 25 16 17
111.01 109.492 49.9263 14 3 7
113.323 107.108 43.3398 30 18 18
107.31 105.662 54.0506 38 26 26
113.728 109.26 44.262 39 29 28
109.536 105.138 50.3941 32 22 23
114.667 107.755 46.6897 36 24 24
131.486 103.425 21.0172 55 45 46
131.472 103.423 20.8078 56 46 47
106.749 109.591 50.2754 71 61 62
112.849 99.503 44.0996 36 21 18
114.973 104.215 45.4359 41 30 28
127.364 101.887 19.6914 39 29 28
113.376 104.532 45.8648 58 44 43
111.138 98.4285 44.7816 46 27 23
109.599 117.52 43.4911 33 19 19
114.797 105.547 47.045 39 28 26
127.749 101.973 0.20049 227 173 21
127.82 102.015 0.265799 226 176 19
99.4975 114.373 38.3034 70 118 132
108.033 92.7724 47.5792 255 247 244
123.428 97.794 2.83303 202 184 174
122.583 96.1643 5.02891 199 171 168
124.743 104.726 1.20854 222 183 26
108.203 95.2681 54.1208 86 58 57
106.761 100.152 56.1776 210 234 244
112.613 108.182 18.0659 104 89 94
115.758 100.12 25.6368 88 82 96
117.976 99.8529 16.5339 68 64 65
127.477 95.2035 0.630373 65 53 55
115.367 102.7 24.9535 207 157 134
109.765 102.207 42.7554 37 21 22
108.694 104.065 40.3456 45 31 31
102.964 100.564 54.4485 227 251 253
108.998 100.433 52.6051 56 46 45
126.582 94.6396 2.66354 65 53 55
125.858 100.829 0.62347 221 167 19
107.934 99.8763 50.6684 48 34 34
112.324 109.547 17.3866 73 76 85
125.823 98.3564 1.34503 64 48 48
122.851 101.338 2.38196 53 41 41
108.743 100.3 52.4083 55 45 44
123.605 100.39 1.78502 57 46 42
123.166 101.517 3.30311 52 40 44
121.01 102.141 1.10305 50 38 40
108.769 104.983 39.3452 35 21 21
110.883 93.4045 47.0504 242 222 215
98.0372 112.684 36.3985 49 30 34
109.583 97.1031 51.1404 181 198 208
120.27 92.4491 12.9649 191 171 180
109.93 97.2925 51.711 181 198 208
113.155 104.934 19.5571 180 63 54
116.803 86.9104 20.288 233 223 231
116.519 110.632 6.2853 60 50 51
114.624 98.5308 30.528 181 145 131
110.897 94.9795 52.4803 252 241 239
125.665 95.114 1.2942 60 46 46
110.269 94.0426 51.5079 248 239 232
104.374 97.8398 54.3756 234 253 255
122.056 98.4669 11.5285 158 125 118
116.359 97.4171 25.4053 126 132 156
114.692 109.191 23.066 70 85 104
113.583 89.1342 37.2735 98 81 99
109.958 97.8291 50.3774 148 160 172
123.927 108.543 0.342975 125 98 17
115.844 97.1247 23.8982 126 132 156
123.606 108.376 1.09047 170 139 46
111.421 113.361 12.6372 68 67 75
112.985 108.903 26.2329 23 30 58
123.809 94.0541 2.94257 213 193 192
118.382 102.72 25.0295 90 60 60
119.864 97.2363 12.0671 66 61 57
117.373 102.175 22.875 60 48 52
127.833 103.918 2.03478 230 187 23
100.568 108.273 52.959 100 87 94
121.762 98.2121 2.87886 190 158 147
125.775 95.2766 7.08179 214 194 193
107.3 98.8387 55.0844 184 206 217
121.482 112.077 1.25786 198 161 83
107.956 93.7796 54.1822 236 119 163
121.532 109.785 1.92495 68 57 63
113.217 114.166 16.0748 74 68 80
111.626 113.453 13.923 68 71 76
124.094 93.0251 1.89835 220 204 204
112.872 98.2457 44.1683 54 36 34
113.445 104.291 27.5974 165 126 109
111.763 108.267 21.7512 59 61 76
106.145 115.983 22.8758 16 171 215
103.334 101.67 50.7 69 53 54
112.853 114.003 15.5873 74 68 80
112.982 104.741 22.4361 184 141 125
110.852 110.948 18.7951 60 72 94
112.282 97.9213 43.7512 48 28 27
101.341 116.587 29.0546 33 18 23
112.732 98.4204 42.5338 62 44 42
112.712 89.5649 32.2954 247 174 183
123.074 95.9552 10.501 196 168 167
114.805 94.9649 33.7176 234 55 61
110.263 113.728 5.07909 76 70 80
110.501 110.372 24.218 91 123 161
117.13 93.6433 31.7877 71 52 72
120.912 111.589 1.08867 61 38 30
108.799 113.928 9.83169 72 71 77
121.778 87.155 6.79747 66 55 63
110.811 97.1118 40.4154 45 20 13
111.258 104.987 29.3125 41 29 29
121.302 100.746 3.11292 50 35 42
125.838 102.783 5.86202 226 182 21
109.222 114.261 12.2984 73 70 79
117.104 96.7101 24.0479 100 104 129
103.251 109.199 36.4401 51 39 41
108.593 113.804 22.2505 11 168 219
104.048 103.455 53.7175 116 99 105
108.393 113.717 22.3268 31 187 235
104.832 111.461 33.1876 26 17 18
114.958 97.4079 33.8569 179 142 126
113.637 115.22 11.5643 78 72 76
106.384 110.3 33.1204 34 24 25
114.214 101.354 27.4394 166 127 110
103.41 115.936 24.013 0 11 26
97.0527 117.668 32.0326 51 44 51
106.93 100.411 41.3871 32 16 17
112.961 103.588 32.7925 42 27 30
116.264 112.358 3.38127 239 200 81
101.2 107.91 43.7705 33 18 21
113.681 95.28 37.4353 180 147 132
113.396 94.7548 46.1253 217 182 160
97.5049 117.842 33.6311 78 76 87
103.115 108.028 43.4449 33 21 23
113.203 95.2882 29.8698 205 23 35
115.214 114.033 2.09367 232 197 43
120.027 89.8488 24.7682 232 224 237
104.459 109.2 40.4232 29 20 21
104.479 114.317 19.7419 18 168 219
96.5565 112.283 43.538 95 79 92
114.123 95.73 36.1933 179 150 134
117.833 113.529 2.45928 233 200 35
107.52 101.03 39.8776 49 33 34
106.685 104.873 48.8785 53 38 41
108.557 103.83 41.805 29 15 15
108.462 103.783 42.0435 29 15 15
107.309 104.22 40.1244 24 12 14
122.055 107 5.94255 58 49 52
105.886 116.004 24.0626 18 174 215
108.508 101.226 43.5379 34 19 22
105.205 106.234 42.0372 40 28 30
106.604 107.896 42.781 11 0 1
102.104 108.618 39.4785 59 47 49
107.186 104.014 43.069 44 29 32
106.331 107.577 34.9496 48 34 34
103.462 109.294 37.0974 42 30 32
104.873 108.833 45.9236 41 29 31
106.821 108.798 36.5466 31 19 21
109.112 105.109 42.7054 30 18 18
121.957 102.96 9.20177 41 29 33
107.677 108.21 37.3521 33 19 19
109.284 102.723 37.1308 39 23 23
109.75 105.441 38.2895 38 24 24
117.265 113.264 1.74445 231 198 35
121.754 106.975 2.63679 64 54 55
120.549 102.183 6.61744 39 28 32
117.716 113.158 1.16611 226 193 26
109.761 103.678 38.5754 68 52 52
108.408 98.0473 40.9945 74 50 50
109.062 103.326 37.3493 63 47 47
104.5 117.099 24.825 28 173 226
121.935 101.104 3.35936 48 40 38
102.884 108.971 41.3886 55 43 45
97.512 112.68 44.8414 84 80 97
106.694 103.524 44.2461 46 31 34
109.118 105.129 36.7564 40 26 26
109.054 103.322 36.9558 31 15 15
109.302 109.996 4.93054 238 198 41
98.8113 108.363 2.21277 217 188 52
99.4476 109.597 1.74362 226 195 53
98.2511 108.919 36.204 149 234 241
89.8453 108.748 26.6361 92 125 168
116.929 101.322 20.0263 190 158 137
94.703 113.263 34.5815 88 122 160
91.5532 112.585 38.9978 136 67 98
113.609 96.5143 27.8071 202 160 144
121.916 97.8644 1.60991 216 192 182
122.097 98.3657 2.74909 217 193 183
109.611 110.226 2.25559 205 156 25
116.16 96.0618 26.5368 245 236 237
88.6872 110.417 20.231 97 92 99
101.539 109.208 53.5343 72 51 56
110.41 94.5518 43.845 246 80 154
121.38 102.069 0.773798 65 45 38
114.896 100.937 28.2781 190 149 127
121.158 100.624 0.952122 67 48 44
112.947 104.684 24.6496 43 29 28
93.1111 110.915 34.4205 213 195 221
121.852 103.336 2.56341 60 41 34
110.678 106.98 25.4385 103 74 60
92.7839 110.245 33.1606 246 234 255
109.147 93.3458 50.2636 102 79 87
108.335 111.757 2.21942 62 53 54
107.909 99.0434 52.4618 120 77 94
96.9142 110.921 33.1424 113 106 113
109.191 113.579 1.05439 65 56 59
113.177 103.616 21.2345 41 27 27
112.456 94.1761 34.3228 209 161 149
87.263 112.262 26.0782 241 83 158
107.629 108.729 33.8783 37 19 17
112.323 91.3126 36.1034 103 83 92
89.314 110.501 30.2169 127 160 203
107.463 104.907 35.6638 28 13 10
89.9362 110.497 26.5879 181 206 237
122.291 93.3054 7.84634 249 230 226
94.634 109.559 45.7602 99 77 89
110.199 95.8511 53.0206 112 80 95
102.126 108.663 20.8902 95 132 174
92.9394 109.673 13.5194 48 158 211
102.633 111.469 33.5204 52 38 38
114.768 104.069 22.172 42 32 30
