ply
format ascii 1.0
element vertex 1406
property float x
property float y
property float z
property uchar red
property uchar green
property uchar blue
end_header
72.1797 96.7132 56.2246 88 88 100
107.845 68.6391 54.5357 22 6 16
101.306 76.3104 58.829 147 45 43
96.033 89.7623 73.7336 122 83 54
81.1766 97.2037 68.4985 144 143 151
108.282 87.0686 66.1102 190 148 110
86.5909 77.2333 60.6319 254 223 195
104.791 64.6194 56.8655 226 221 228
97.6964 79.171 62.5264 176 58 58
84.4832 82.3227 56.7886 255 229 201
96.0843 72.1021 59.3593 224 165 149
107.126 69.1924 52.4268 122 95 100
106.707 64.4799 56.9369 219 211 222
103.782 79.6299 61.246 214 168 116
105.047 64.4405 56.2968 225 219 229
83.8081 82.3251 57.8953 174 150 140
101.264 78.3147 61.3745 234 182 142
117.696 97.7999 78.5139 37 27 25
97.8023 79.5243 64.7043 183 64 66
95.9891 72.1699 59.0227 224 165 149
74.4641 91.6772 53.4625 254 253 248
101.875 80.2018 62.7515 188 152 92
104.533 68.7938 53.9427 169 129 130
103.353 83.5546 65.2622 159 127 104
112.796 60.3136 44.8444 222 216 228
90.0419 81.7044 60.7163 179 79 77
100.828 81.2783 63.3555 218 170 121
103.456 80.2789 60.5514 204 165 110
112.504 60.5219 43.7057 221 215 227
101.12 80.9559 63.3639 210 160 109
97.8369 72.5256 61.3901 203 95 92
104.968 70.8189 55.8354 195 110 103
78.1127 97.8044 63.9989 125 124 132
106.348 97.1128 87.5981 65 63 64
87.9442 91.2107 65.7708 164 117 87
90.1964 81.5865 60.7224 255 168 162
98.0293 70.2931 60.0704 102 37 31
87.7947 79.1518 57.1886 204 89 94
97.4458 71.5013 60.4773 233 171 160
90.8972 83.8457 66.0446 154 126 114
102.853 82.9095 65.5152 79 53 38
92.7746 81.8584 63.8326 187 74 76
110.585 87.5648 64.6262 32 21 17
83.8779 79.5905 59.4065 198 190 188
84.6597 95.0953 68.7243 171 149 135
92.6971 81.9191 63.4158 173 63 64
96.0276 83.4248 65.9054 236 209 182
111.008 63.7786 44.7296 218 212 224
92.7363 81.8884 64.719 190 70 72
102.234 82.9653 66.8097 226 194 171
116.532 75.2327 26.4356 195 179 189
99.336 77.8395 61.375 169 65 64
74.5889 101.103 67.2168 84 86 101
86.2913 91.1616 66.5376 255 252 234
85.1738 90.6814 65.4529 154 136 126
96.5804 77.7032 60.3976 162 57 54
92.5763 82.1942 65.8168 190 77 81
88.9095 90.403 68.4781 174 118 91
85.5916 79.3846 58.5425 247 225 201
105.43 98.102 84.6794 52 48 45
98.0165 83.4457 65.2459 203 178 147
97.1677 90.329 69.4707 127 77 52
107.054 70.6517 55.1249 175 114 85
91.4069 74.8789 57.5457 232 139 122
104.137 86.7828 68.5995 92 54 35
118.746 87.2206 44.1908 169 106 62
91.7719 74.6209 60.176 207 100 94
85.9926 88.8535 64.3224 255 252 236
91.4358 74.8584 58.5722 149 51 40
93.9859 84.7461 66.0904 138 110 99
87.7555 80.2288 58.6523 206 92 92
110.783 87.3631 65.1559 38 28 27
122.648 92.2777 33.9986 107 61 38
104.155 86.7659 68.4178 92 54 35
100.454 84.627 65.1195 86 59 42
105.08 87.7318 66.9086 94 55 38
93.0088 83.5484 65.969 227 200 181
87.8689 94.085 72.1623 67 67 69
94.1069 83.2012 66.4005 118 91 74
101.32 88.5564 67.438 109 62 44
95.9924 83.4538 66.4367 120 91 73
85.2631 78.1586 56.0109 122 98 96
70.9495 91.728 53.9497 89 88 104
104.281 83.7391 66.2062 191 161 137
101.262 85.2313 67.317 143 108 80
98.8927 86.4661 68.6259 126 75 54
99.6396 84.1967 66.685 118 90 69
119.157 78.5616 20.3587 199 183 193
99.0665 86.3127 68.2445 122 74 54
100.484 89.5072 73.441 165 135 109
99.8019 90.1412 71.0839 86 54 41
118.482 75.7007 22.2195 201 185 195
75.6008 104.594 70.3026 84 83 97
101.317 89.8363 71.2233 101 65 49
79.2304 91.0766 60.047 217 212 206
98.1276 83.3519 65.212 242 217 186
104.215 84.6628 66.8601 67 39 18
98.5235 77.3058 61.9542 173 58 61
93.0699 84.808 65.9996 132 106 93
100.464 87.2526 67.3013 117 69 47
94.0905 80.7045 64.5992 182 65 71
119.086 96.1484 62.6016 76 52 40
87.392 93.6387 71.8132 68 48 47
122.105 84.5232 19.1484 196 177 183
118.54 96.8295 60.5299 93 74 68
102.07 92.4829 80.0145 65 57 55
101.078 83.2783 65.0648 122 95 74
74.7104 101.003 67.0914 77 86 103
106.199 83.0911 59.4299 195 147 98
69.5867 96.6778 51.9349 84 84 96
118.652 96.6888 61.2939 101 81 74
91.8229 74.5849 60.1189 176 82 74
110.096 67.8908 50.196 49 39 48
104.939 85.151 65.5812 77 49 37
96.1259 86.7927 68.1175 148 94 70
90.6769 79.9555 61.3394 187 81 81
125.293 85.6588 23.9722 51 40 46
88.4207 89.6387 65.0742 152 125 104
98.6542 73.0468 61.7048 176 79 73
90.2971 72.4835 60.0704 153 121 110
106.929 85.0008 64.9782 199 165 138
97.5485 86.0925 69.7837 136 85 58
117.945 89.7095 41.0402 172 113 69
80.5925 85.4959 55.1931 225 220 216
76.1372 83.7184 53.0377 100 88 102
106.077 93.4153 74.4422 43 34 35
100.874 93.6525 76.8806 68 60 58
93.8927 87.8693 66.4036 166 114 90
96.8964 84.4729 65.7962 99 70 56
122.186 84.9833 14.6139 190 168 170
99.0889 82.7081 66.9715 180 155 125
115.97 83.5549 39.6941 167 108 68
100.993 93.5367 77.3405 68 60 58
100.117 84.3662 66.2564 215 185 157
110.997 88.5109 65.4934 38 29 30
108.751 84.6225 64.4011 49 18 0
107.48 83.7901 61.2995 179 135 86
83.397 90.8548 65.7467 153 136 126
108.319 89.2159 67.2097 44 34 32
95.3284 86.7794 67.9355 152 98 74
98.4374 89.1777 74.042 138 102 76
97.5263 77.2954 59.0062 163 54 57
110.185 64.3737 48.0684 217 209 220
95.7785 87.0919 67.7948 138 82 59
104.704 79.2064 63.8939 204 158 106
86.6721 100.237 81.9008 39 30 31
105.557 75.2926 55.2332 172 93 63
103.465 67.8833 59.0518 174 83 88
101.249 83.8288 63.9288 227 200 171
97.0412 83.0476 66.7669 246 220 193
104.715 90.1721 69.8812 99 59 47
110.196 88.9777 63.8973 35 26 27
107.967 89.5717 66.9729 32 21 17
105.326 75.483 55.7632 192 122 88
97.118 85.4627 67.7904 83 47 23
99.789 66.5835 60.7681 99 41 65
105.257 91.198 72.6178 47 36 34
90.0668 89.1345 67.7174 178 127 98
93.3592 85.3603 67.023 243 226 198
87.4013 78.9808 61.6509 255 183 160
90.7651 88.9216 66.3867 162 111 84
118.273 95.4292 68.3675 54 42 42
122.273 95.8964 43.9317 174 118 69
104.334 61.7999 59.4723 234 228 240
96.4167 86.0634 66.1233 79 44 14
100.395 82.5462 63.267 170 132 95
82.4738 92.9206 66.2459 189 176 168
121.892 92.8444 39.5055 168 114 70
115.911 93.8213 63.4388 31 22 23
105.598 92.6083 72.7474 34 26 24
106.768 82.5687 62.0674 190 143 89
100.318 87.3844 66.8427 117 69 47
115.951 93.7744 64.3862 40 31 32
107.842 94.2151 81.3343 64 56 54
81.8009 92.1305 60.7537 255 250 231
98.7955 85.3808 68.1781 124 79 60
111.203 88.2974 66.1636 40 31 32
97.7159 86.8642 67.2486 135 85 62
102.515 97.6182 85.0019 13 11 12
82.4152 92.9682 65.631 170 155 148
107.012 94.6189 76.3129 34 25 26
108.095 78.2445 57.219 183 122 78
97.4963 83.9663 67.0843 108 78 68
98.4606 92.5646 78.3541 67 59 57
107.486 83.2688 60.6464 187 137 84
111.801 79.5127 49.2784 156 92 54
90.8653 86.2265 66.2237 112 89 75
106.359 77.846 53.3825 197 138 96
97.0774 86.0701 67.8676 124 77 51
80.9961 85.2002 55.732 180 175 172
92.5489 78.5578 63.4164 181 71 74
115.355 97.653 84.0578 38 26 26
87.2712 80.5835 57.8995 174 76 67
106.135 83.5358 60.4889 188 145 94
83.0919 91.0986 64.3798 172 154 144
92.607 87.3269 65.141 97 59 36
85.7188 79.2943 59.463 253 233 206
108.654 76.8498 55.2201 172 107 69
115.296 99.8269 91.9788 73 65 63
124.045 92.3711 20.8775 39 12 0
101.67 62.819 61.9264 62 49 66
95.6886 75.5104 61.7255 158 48 49
102.022 71.6694 56.3054 118 44 43
102.965 96.6815 83.4445 52 46 46
110.566 68.9632 51.2923 45 32 39
104.7 89.7727 68.1768 82 44 31
114.192 87.2044 52.7607 170 116 69
107.364 84.2777 63.4124 58 33 13
125.317 88.1821 17.9036 47 39 37
97.2603 86.3423 68.4434 134 83 54
98.8362 84.2114 63.6072 180 155 125
109.024 75.2053 55.8107 163 95 60
108.048 93.5233 78.5897 24 16 14
112.712 91.5658 66.8585 29 20 21
99.599 83.5563 65.4967 158 130 106
123.458 92.9564 32.7788 166 106 69
91.6579 86.3497 65.2484 216 194 173
119.404 83.6558 22.5979 182 154 151
90.7994 93.8345 73.523 78 70 68
114.904 81.5935 45.3441 160 101 61
114.85 81.6474 46.0466 171 112 72
97.5528 85.6601 68.4425 122 80 58
124.142 86.8061 17.5401 66 51 54
116.682 93.6395 70.7587 38 28 29
110.927 82.4285 54.218 180 127 75
111.58 82.585 52.7531 179 126 74
112.682 91.6096 69.1863 40 31 32
109.67 76.5483 51.8179 172 106 71
114.975 81.5228 45.3131 164 102 63
99.2823 95.3565 81.2841 44 38 38
117.382 74.6342 29.575 198 182 192
128.546 94.414 50.8504 56 46 54
116.451 78.1658 38.1897 182 143 138
96.1447 85.9119 66.9846 103 66 37
90.6197 93.9935 72.7923 69 61 59
113.555 93.4438 73.5689 42 32 31
118.11 79.1694 34.3115 177 151 150
96.2594 95.7217 80.9219 37 28 29
112.128 92.216 68.335 40 31 32
119.466 74.1109 21.7132 214 203 211
102.568 95.7406 81.7281 57 53 54
104.547 88.2274 67.292 92 50 36
107.379 90.35 71.1845 49 40 41
106.37 74.6232 58.5197 175 105 71
114.328 84.1 53.7616 162 104 56
99.1963 81.5569 66.028 218 172 138
100.925 100.502 95.4091 18 14 15
113.787 84.6528 51.7593 162 104 56
94.0096 94.4347 77.7862 51 43 41
100.606 87.8562 68.5897 113 62 41
94.1733 95.4975 75.7343 46 38 36
113.785 84.3627 51.0133 161 103 55
76.7527 106.113 77.0293 8 190 227
88.5665 95.4056 74.7209 65 57 55
109.45 90.9312 71.1499 71 62 63
97.3722 86.8511 69.7177 133 79 53
96.6623 95.3376 81.1643 38 29 30
114.271 84.5707 49.3661 179 118 73
93.264 95.12 76.0221 47 39 37
86.1215 100.738 80.1992 41 32 33
84.3772 97.8425 11.8015 193 128 86
83.7207 98.5554 12.2273 188 123 81
69.4534 102.237 13.1047 167 62 59
71.6773 100.057 10.4655 169 59 58
73.7277 93.5376 29.9192 71 58 68
56.8697 101.308 19.0231 155 65 64
56.9049 106.983 16.5946 167 77 76
61.4502 97.307 13.8751 162 72 71
60.258 97.5162 28.0766 190 125 121
79.7322 88.6385 9.84597 91 30 25
59.0317 107.065 25.3897 125 52 46
54.0683 106.597 20.0165 176 88 84
138.609 77.3137 26.7338 38 27 31
58.2711 99.2378 33.6549 203 136 130
62.6546 103.674 16.7772 127 46 43
56.111 101.11 39.0832 249 189 178
62.3536 96.3831 35.2938 234 60 132
83.9698 88.2369 23.6231 66 56 67
140.675 73.2053 36.4928 219 209 210
65.0447 90.3354 13.128 85 71 84
131.763 82.8844 22.9621 52 43 48
93.5381 96.6128 11.367 162 96 64
89.0242 98.2256 10.0686 169 111 63
88.7909 98.4927 10.1898 169 111 63
130.57 85.0623 16.4917 51 42 47
111.931 84.6118 5.1065 205 192 201
131.058 104.749 1.10387 221 176 25
119.079 91.8129 2.21416 189 168 173
130.788 117.274 1.05633 71 61 62
146.826 112.862 1.58299 233 203 31
146.905 112.855 0.56953 235 204 35
124.642 87.7913 6.17042 203 190 199
111.155 88.4511 4.68513 41 31 39
114.827 88.1415 4.07154 196 181 188
146.238 113.51 0.581383 235 203 32
146.263 113.507 0.654122 236 204 35
114.781 87.5561 4.95276 196 185 193
122.96 88.8821 3.77593 202 186 196
111.033 88.3575 4.07258 40 31 36
115.259 88.6657 3.69253 194 177 185
145.372 114.491 0.470804 237 200 34
114.956 89.0594 2.57939 193 176 184
138.164 112.687 0.550084 231 200 31
123.434 97.5358 2.08454 183 157 156
120.93 121.776 3.07287 232 199 36
138.819 113.258 0.632492 233 198 32
139.076 113.428 0.949561 232 197 33
146.733 108.94 0.147493 72 63 66
134.93 109.622 0.594379 232 193 36
135.308 100.295 1.69602 226 182 25
122.64 97.1497 1.3844 180 154 153
140.161 114.365 0.998153 234 199 35
122.03 96.5017 1.72903 180 156 154
122.501 96.5376 2.69044 180 156 154
134.762 100.894 2.30653 224 178 23
133.861 109.005 0.272285 233 190 33
134.306 108.987 0.901246 231 191 33
125.805 109.533 0.618247 215 175 28
146.832 107.055 3.47223 69 63 67
139.594 108.112 0.101658 67 56 60
119.917 114.804 7.09544 230 182 36
135.138 112.26 0.0324979 69 58 64
138.61 108.968 0.232175 73 63 62
138.638 108.967 0.492171 73 63 62
134.09 113.207 1.21847 68 58 67
126.329 109.026 0.673422 223 172 29
134.562 113.167 0.715956 69 57 61
126.587 108.791 0.659765 222 176 28
120.241 114.776 5.50681 224 180 29
120.311 114.77 4.89291 224 180 29
138.143 109.773 0.32677 79 63 66
114.994 84.4491 2.81874 52 46 56
127.646 107.843 0.51141 221 177 29
73.4621 116.496 19.2667 23 17 19
144.039 94.5026 6.41529 225 215 216
134.251 113.404 0.736932 72 60 62
115.059 84.4605 3.20388 51 45 55
126.674 120.787 2.8597 72 62 61
121.201 109.6 2.00573 49 39 40
120.713 109.621 3.13494 46 35 39
75.6121 88.9532 7.83558 201 149 92
126.337 113.342 0.10639 67 59 56
114.439 84.913 3.00618 55 48 56
126.031 99.898 2.15952 196 134 25
125.201 113.29 1.99693 65 54 52
123.093 110.051 0.948583 54 44 42
121.779 110.112 1.94254 54 39 44
143.26 108.708 1.93232 70 61 64
126.267 100.32 1.67421 200 138 25
125.34 114.429 4.5805 67 62 59
127.878 95.5163 1.57781 47 36 42
126.421 96.6922 0.945851 47 36 40
126.619 96.5114 0.831863 48 37 41
94.7879 97.6265 7.85747 142 25 33
127.437 101.04 2.37294 199 138 21
83.3089 110.725 13.0616 45 35 34
127.144 100.799 2.28749 198 137 20
125.483 97.6756 1.20763 42 30 30
105.142 82.1563 4.23351 223 218 225
56.9735 94.4533 15.4547 235 192 158
123.564 99.7976 1.98148 44 36 33
110.162 82.9452 5.348 216 206 215
90.9551 121.344 9.5449 198 144 80
103.304 128.376 13.6277 168 105 52
124.32 85.1997 5.37205 56 46 55
109.161 82.0801 5.17727 221 215 225
69.4366 121.318 17.624 40 31 32
104.499 76.0278 5.53327 227 222 229
64.1153 120.66 21.87 23 17 19
115.589 99.7341 2.38468 38 23 26
114.668 125.572 5.17251 75 66 61
115.112 103.12 0.360353 34 22 22
115.445 96.7008 1.46459 155 122 113
108.832 82.0193 3.44162 220 214 224
106.938 122.248 12.5683 148 95 53
115.431 96.6998 1.09789 155 122 113
93.1003 88.5709 3.3735 176 111 71
73.9276 86.6636 6.53667 214 170 121
101.048 102.848 4.22767 161 96 54
101.176 95.9303 1.17564 165 112 81
96.1091 99.5041 9.18291 170 109 65
102.918 89.2619 2.70273 189 150 133
100.573 103.155 2.79579 171 111 61
100.229 95.8119 6.43519 97 57 45
124.647 92.5367 5.98648 192 171 178
132.272 109.583 1.04419 230 191 34
104.825 129.563 12.4864 243 214 52
138.593 95.6366 5.25268 241 232 233
117.463 122.095 3.28186 233 200 35
95.5336 111.69 8.61401 37 23 20
148.125 105.547 2.74806 68 61 68
79.7978 101.557 14.141 29 26 21
71.8299 83.2152 9.59095 155 74 70
95.5265 85.873 1.03397 178 115 82
68.6731 80.8624 4.2447 92 78 95
147.327 106.613 3.48091 69 63 67
104.488 128.162 9.97234 169 109 59
104.25 89.4224 0.309338 173 121 97
109.637 98.3699 0.836926 146 82 54
116.386 88.3458 1.47752 200 185 192
79.9413 79.5006 3.17564 235 69 145
131.791 100.18 0.944983 224 175 21
95.0548 101.175 6.37048 162 110 62
87.0765 84.1873 5.06524 188 124 88
69.9957 139.306 18.0936 117 66 35
131.416 100.252 2.44853 222 175 27
109.701 101.988 1.77282 144 77 48
99.418 93.242 6.20037 77 26 5
58.7563 108.313 17.3237 115 73 57
123.403 92.3942 3.77749 194 175 181
129.7 100.282 0.526776 217 164 24
115.438 125.794 7.79956 113 87 28
95.0356 100.389 5.06938 162 110 60
131.645 100.369 4.54434 218 171 21
82.6998 136.291 15.4152 212 175 123
104.181 113.567 10.3469 148 83 41
124.092 90.3385 5.26501 197 180 188
53.5731 103.371 20.4859 145 97 74
97.8 105.474 5.42079 172 119 69
71.3064 132.835 18.7805 93 55 36
61.9704 95.7854 17.3363 226 186 150
91.4875 105.275 10.1666 37 27 28
123.482 75.5506 14.5904 63 59 73
96.4544 92.4776 6.20462 182 106 83
86.644 128.811 14.0845 180 141 98
146.291 100.736 7.52388 67 58 63
106.97 93.4825 1.03008 164 103 74
55.8357 91.6217 13.7798 196 96 98
91.3328 105.275 9.76059 38 29 30
78.9496 139.691 20.4695 162 121 75
124.231 91.4584 5.98 195 176 182
105.671 107.033 7.71008 157 83 58
58.1938 108.324 18.0773 115 73 57
61.3234 95.7507 17.8398 96 57 28
103.779 91.0836 1.04249 153 96 67
143.159 87.1902 12.7211 226 216 217
89.9229 84.6177 4.02529 185 120 80
77.3007 129.67 19.3603 92 50 34
55.8418 91.2835 12.3525 192 85 91
110.162 104.861 6.02451 153 103 78
105.636 107.034 7.52177 157 83 58
120.788 84.5544 7.59097 49 44 51
111.004 104.861 3.90679 149 97 73
90.8333 105.276 10.6532 37 28 29
70.7554 114.519 17.0751 21 17 18
110.577 98.3233 1.23779 115 69 45
132.632 118.198 5.85552 67 59 57
131.289 97.366 4.14169 53 44 45
143.85 111.611 0.26304 194 164 92
78.5052 138.411 16.0861 215 175 114
58.0956 109.439 17.0016 126 90 66
52.6259 115.055 21.8798 31 21 20
108.051 102.724 2.74308 175 106 77
126.22 94.0051 3.04658 48 37 43
85.9382 130.519 19.063 192 143 77
88.5372 124.449 11.6174 126 87 46
103.477 106.68 5.13021 148 80 41
130.695 112.667 1.6267 63 58 62
87.9891 126.05 13.8047 204 155 97
108.362 105.1 1.57946 137 66 38
82.9537 106.588 8.3653 37 27 26
81.9522 135.502 20.2274 141 107 70
125.225 93.3291 6.22982 193 176 182
103.341 106.681 7.12431 132 62 28
79.4698 79.4222 3.9169 235 68 146
90.5134 128.413 14.1017 201 140 77
95.1956 105.484 11.3093 172 116 65
62.6824 109.075 18.9859 103 60 44
64.5854 95.9253 11.6599 97 68 50
135.322 102.468 0.936813 225 182 25
110.368 107.063 1.73866 151 80 48
99.2268 91.8328 2.78464 58 15 0
91.6203 125.683 17.5863 181 123 59
63.6727 95.8764 12.6277 112 80 65
63.257 99.9106 19.3057 73 37 21
95.3531 89.357 0.811544 170 109 65
147.66 102.126 8.35638 68 62 64
110.159 98.3007 3.48001 87 47 35
110.858 105.39 3.35372 137 68 39
91.537 125.195 11.1661 197 142 77
147.273 103.679 5.61793 67 61 65
87.0384 124.652 15.0249 173 127 93
129.106 83.7178 6.74676 214 205 210
109.849 95.9577 0.312687 72 27 4
133.398 97.1106 3.59891 50 44 46
145.724 99.8644 7.07329 64 58 62
52.7377 91.0443 17.7121 184 88 92
136.913 106.79 0.948632 79 53 18
84.1129 129.225 18.8009 76 40 14
66.8444 132.592 22.9838 77 51 34
103.47 126.867 9.68557 180 125 68
142.888 112.663 1.01069 235 202 39
103.63 106.678 5.67736 132 62 26
56.2758 124.551 23.4816 56 52 53
70.3961 80.8524 10.7187 247 85 158
143.545 106.259 1.42976 70 61 62
94.3991 105.403 11.387 165 111 64
107.854 96.4391 2.5721 178 115 84
118.912 100.091 2.90694 33 23 22
78.9184 88.5128 8.2995 189 125 77
108.104 96.4561 2.25153 154 97 67
61.9675 127.083 23.1256 26 20 20
134.159 117.996 1.38819 72 62 63
121.158 117.924 5.37335 231 193 32
122.968 106.884 1.60348 43 33 32
68.4333 99.1471 12.7602 100 68 45
82.3788 132.95 14.8219 206 166 105
131.583 82.9785 11.5528 216 205 211
59.0515 122.634 25.4326 21 17 18
121.393 84.7511 3.89047 52 45 53
95.3255 81.7692 0.459111 77 64 84
56.7974 124.218 23.5624 42 36 36
79.2705 88.5504 8.54031 192 125 80
132.186 83.1093 12.8443 217 206 212
64.5168 100.874 16.337 77 42 20
59.2984 117.026 20.8103 22 18 19
70.3567 99.2148 10.144 137 98 69
116.521 88.3651 3.00659 197 180 190
102.616 112.621 10.1917 148 86 39
141.137 111.258 0.809645 69 49 22
120.258 118.479 4.83062 232 194 35
59.0661 123.219 21.5908 35 29 31
99.7858 119.626 13.3035 182 126 67
85.2408 79.5864 1.7126 230 66 135
144.632 113.034 0.66173 233 201 38
99.7058 109.857 7.85766 174 114 62
106.98 91.8233 1.01248 176 129 101
143.041 85.1173 11.6785 177 166 170
103.861 118.286 7.46924 183 126 71
103.797 126.811 9.49673 182 126 69
72.4001 129.776 20.8441 82 43 26
92.5888 120.868 9.64188 177 118 58
67.218 133.541 25.538 78 46 35
73.073 129.247 21.5857 86 44 28
120.157 74.5969 10.8749 64 60 74
120.686 84.5359 5.63153 48 43 50
142.578 85.0151 11.1346 130 119 123
91.5433 114.218 9.95103 42 31 29
95.3846 126.804 12.1537 187 134 68
92.6652 106.871 9.36049 36 26 27
74.3228 110.496 18.5401 62 50 52
76.2107 130.234 16.8515 95 52 35
90.8149 86.4057 3.43456 174 108 73
137.172 93.4636 9.04888 58 48 56
87.245 115.818 13.6605 44 34 33
123.362 101.825 2.66711 42 30 32
73.5695 123.602 18.9265 29 23 23
94.9737 105.608 8.16846 108 76 55
102.416 117.022 7.02209 182 123 67
73.9277 123.56 19.0315 31 25 25
73.3622 123.626 18.7809 32 26 26
127.93 87.9946 5.43624 47 40 48
132.122 83.8581 9.45965 220 209 213
117.611 98.3046 2.39713 170 142 139
113.734 104.758 4.21556 33 21 21
105.178 117.782 8.8041 171 112 56
49.878 100.524 17.1524 129 105 93
75.4205 121.854 17.0957 32 26 26
143.379 100.963 3.03096 68 59 64
91.8855 86.5452 2.79025 185 122 81
106.68 117.631 5.41989 169 110 54
100.35 112.475 11.1693 178 116 65
136.59 92.8197 8.31962 59 50 55
126.212 81.7391 11.8483 57 49 60
129.573 112.611 1.90688 70 55 58
75.9131 121.802 17.1272 29 23 23
133.761 114.389 1.85572 69 59 60
80.0697 110.753 15.2952 47 37 36
100.908 115.04 10.933 175 114 60
128.522 117.548 3.7915 71 61 62
129.827 117.39 1.09915 73 63 64
102.461 114.922 7.14664 158 97 43
139.934 90.2325 7.95784 223 213 214
61.9584 126.851 23.9376 27 21 23
62.1375 126.828 23.1384 27 21 21
88.3306 88.8171 5.44003 180 117 73
72.7971 81.2082 7.18879 246 114 161
78.4154 113.52 16.9294 50 40 39
64.3985 77.4397 5.77958 92 81 95
81.0313 112.134 13.5936 47 37 36
102.668 114.906 7.63774 166 106 52
146.348 106.132 6.47407 86 77 80
72.8911 123.617 16.3938 30 24 24
135.238 92.6497 4.39597 60 51 56
146.703 98.176 9.44591 71 61 69
71.8608 125.469 20.1698 33 25 23
105.919 93.3869 3.77631 121 70 51
69.6339 133.629 18.8164 94 56 35
118.985 111.182 0.479083 38 12 0
102.183 119.362 8.36935 182 126 69
74.4201 110.656 17.4414 58 48 49
81.671 110.692 12.6343 48 38 37
82.2914 109.674 11.3341 48 38 37
100.618 110.285 7.43717 172 112 58
65.457 118.653 18.221 31 25 27
69.6468 133.626 18.5643 94 56 37
69.2263 126.982 21.885 45 35 34
75.494 92.7143 10.9604 202 150 93
82.6192 112.643 10.5529 48 40 38
67.8812 107.431 15.2382 71 48 42
114.025 105.547 3.6543 35 23 23
66.4408 125.724 24.6771 33 27 29
142.053 111.195 0.902085 88 67 20
111.325 88.4741 4.44402 43 32 36
68.4578 83.197 20.7601 219 134 131
135.848 100.321 2.73162 229 181 23
144.991 94.6121 7.80545 222 212 213
124.66 87.2 2.50574 52 45 52
140.971 108.867 3.61307 70 60 58
125.561 94.7168 0.861238 46 37 40
144.351 87.2899 7.36983 230 220 221
147.591 102.123 7.24641 67 58 63
76.9835 74.7864 17.6776 235 76 143
76.1913 75.0427 16.4599 223 89 124
75.2693 86.9339 20.1157 124 89 67
114.132 96.5779 5.03186 67 28 11
147.553 102.172 7.73332 67 58 63
137.207 102.515 3.36413 223 179 20
137.16 105.329 3.65966 221 182 25
143.591 88.0124 8.58173 225 215 216
89.2429 93.7814 11.1082 51 41 42
143.11 107.821 4.72582 64 58 58
147.509 87.9635 10.4575 226 216 217
74.942 75.4468 16.1503 210 96 119
131.346 89.9879 4.24192 54 47 54
117.067 130.439 14.2274 242 215 46
124.46 130.419 44.5884 74 65 70
98.7168 123.338 82.5282 254 244 217
109.552 133.939 9.13876 244 217 50
102.649 124.111 79.6062 206 174 135
106.402 134.057 34.6553 242 216 45
102.42 124.797 75.6264 254 231 189
130.379 121.064 47.8847 68 60 57
128.51 125.49 31.8717 238 210 41
139.442 93.4288 66.144 197 186 192
106.553 128.335 70.0616 230 196 135
129.892 120.783 47.0164 70 60 58
124.046 126.258 20.8361 243 215 46
131.554 123.304 27.6142 237 208 42
107.03 132.341 26.1348 79 76 83
124.309 126.387 22.3589 240 211 45
137.462 122.099 41.3421 230 195 33
124.082 127.103 26.284 240 211 45
137.77 122.287 42.4294 231 195 36
131.197 87.263 58.8555 217 211 223
102.656 128.84 74.7935 254 227 197
131.78 123.43 29.0143 236 205 37
100.536 104.045 65.3998 92 89 96
137.05 122.26 45.2008 230 196 36
86.1484 78.2886 39.0005 181 91 91
100.843 125.7 87.4563 14 186 226
106.913 131.287 50.2649 153 112 90
128.213 83.7677 55.7447 225 220 227
123.413 118.947 54.7411 182 124 61
120.66 126.148 31.2856 242 212 38
108.131 124.166 63.4066 216 179 111
119.288 85.9262 50.589 140 24 24
100.768 110.927 67.9338 74 73 79
99.4673 110.757 67.9361 84 81 90
144.813 104.987 69.6703 37 23 23
94.9219 83.644 44.1027 223 187 153
97.9942 119.899 77.766 74 69 73
123.029 96.8053 61.0323 30 19 15
101.036 120.865 75.5751 250 223 196
97.9576 119.883 77.7357 74 69 73
126.379 88.3481 57.7463 64 32 21
116.901 103.608 57.3451 36 24 24
103.913 130.218 51.2313 48 0 0
105.343 125.434 64.8506 205 167 102
106.054 125.733 66.8306 218 183 117
134.673 93.3511 64.3673 187 118 87
104.916 127.712 62.1206 223 191 130
138.103 117.811 51.9073 212 170 32
120.595 124.365 46.5368 189 130 74
100.977 127.952 78.0805 254 242 226
138.78 118.26 54.5598 221 176 35
138.549 83.1407 63.811 71 65 77
109.308 129.059 33.3801 151 120 100
109.175 74.6446 39.5584 235 67 144
139.729 112.533 61.0618 45 25 24
118.467 132.015 28.9337 76 71 65
109.265 74.7227 39.8986 234 66 143
133.935 119.317 54.2871 57 46 52
103.372 128.671 58.3248 225 191 128
138.367 83.4524 62.5596 66 60 72
120.783 123.72 42.2899 69 28 0
115.889 106.697 60.2122 66 37 21
127.164 92.3187 59.9875 173 110 59
118.507 120.067 54.5361 192 139 71
98.4785 126.777 82.6275 13 189 230
135.837 117.967 54.6917 56 46 45
121.435 88.1418 52.6961 172 110 59
109.76 127.212 58.9571 211 163 97
105.487 123.707 62.7301 98 57 29
109.859 77.9799 44.0932 187 119 74
95.5545 71.0798 31.2214 89 75 90
121.932 102.05 61.5019 31 21 19
103.584 127.603 73.4854 233 207 156
96.4234 71.7797 31.8675 90 78 92
97.1333 118.755 89.6063 69 67 72
104.181 112.165 68.2429 45 30 23
97.5541 121.443 90.9798 60 64 67
96.043 120.339 89.8088 61 59 64
120.165 100.792 56.315 36 24 28
118.818 130.157 17.4703 243 215 45
131.891 129.809 56.1939 77 68 73
104.383 124.665 65.1631 239 200 159
92.7314 93.1452 56.2793 177 183 195
103.6 119.688 67.9081 140 86 60
112.093 126.89 47.6172 195 144 81
118.868 84.6142 52.6998 180 119 65
100.674 121.678 74.2988 255 247 213
117.133 123.293 45.6718 195 138 71
108.033 122.763 61.9742 232 190 140
146.339 90.7162 71.4752 50 44 54
122.921 120.688 50.604 190 131 71
145.762 90.0973 70.0431 50 44 54
143.871 101.796 70.9029 156 120 106
128.661 117.48 50.9047 162 105 52
111.963 119.328 59.7558 209 167 117
109.123 115.448 61.0944 101 53 30
145.815 90.1546 70.4285 50 44 54
103.677 120.432 73.2372 145 89 64
101.711 114.215 67.4298 24 13 11
119.121 107.964 61.0383 105 63 25
112.033 112.006 62.9056 92 49 32
118.553 122.432 45.6097 186 128 64
104.966 126.302 73.7034 237 214 160
112.192 111.271 62.4082 88 47 27
114.093 117.851 60.7484 215 172 119
112.07 114.331 63.208 67 23 0
112.147 108.972 59.8509 81 42 25
118.068 131.628 33.6469 84 74 75
104.313 122.564 70.7856 115 82 51
114.804 113.444 60.3177 199 161 96
111.71 110.401 61.1663 89 48 26
113.245 118.606 60.7071 212 170 120
104.765 126.219 72.7281 235 210 156
105.757 122.814 64.0016 203 167 115
113.934 110.026 64.8677 89 49 24
114.328 114.089 60.2354 217 178 121
145.186 90.7509 71.2344 49 41 52
116.445 112.909 62.9075 209 169 107
114.212 114.639 60.8051 214 174 115
118.162 110.343 56.9291 189 138 73
119.263 111.014 59.7473 196 142 80
113.164 124.977 50.6778 141 87 41
116.333 113.659 59.4251 122 80 40
114.224 122.873 51.4873 202 152 83
116.041 111.177 60.0579 204 159 104
131.403 116.578 54.3143 164 100 54
105.632 110.777 64.7406 93 58 38
116.257 112.801 62.2951 197 153 90
119.204 107.377 57.748 192 138 76
133.011 116.11 57.9364 160 102 54
136.53 100.707 65.252 142 68 41
122.889 107.412 64.6545 169 114 50
111.456 111.682 63.4336 94 49 30
102.367 123.579 72.161 255 233 196
112.674 113.429 63.549 62 21 0
131.423 116.825 56.2172 168 108 54
116.385 115.077 61.2481 140 99 55
116.658 114.424 60.8681 153 111 63
103.192 123.919 67.6745 243 210 167
101.024 113.179 67.076 32 22 20
105.592 119.84 66.0497 108 63 32
117.689 114.501 59.4845 195 146 79
117.112 111.181 58.4077 164 123 67
118.41 107.511 58.6793 202 156 97
129.936 99.8652 63.5273 177 114 61
108.012 117.148 65.2319 112 62 39
121.141 106.247 59.4994 176 115 52
132.859 102.976 64.6299 177 116 61
104.165 122.433 68.0186 114 77 48
111.557 111.936 63.2739 95 50 29
111.955 104.312 61.1328 24 15 16
118.208 83.1777 50.3788 180 113 71
105.855 119.551 65.2121 106 59 33
93.9498 98.8845 60.3445 86 84 89
109.81 130.636 39.0154 86 75 81
115.477 122.99 57.2399 204 154 85
123.646 91.6483 57.693 178 114 66
135.195 112.355 57.9732 134 67 24
106.011 120.036 67.5133 96 50 24
111.409 123.44 57.7634 205 161 90
106.208 127.116 60.2304 212 166 104
130.479 116.233 54.2247 176 116 62
112.053 110.599 62.8386 93 48 25
111.274 114.464 62.3768 90 45 22
111.345 104.247 61.2035 29 20 23
104.968 120.415 67.8519 122 73 43
131.504 115.408 59.962 179 120 64
112.587 123.3 57.7537 205 158 88
111.807 110.457 62.5206 93 48 29
141.547 109.388 69.5351 160 98 59
109.641 106.021 60.5374 72 42 32
106.253 118.556 67.142 124 70 46
105.778 126.118 72.7829 222 191 137
104.007 119.475 66.2501 130 76 50
102.975 114.162 71.1163 29 19 17
120.249 79.3395 47.538 242 234 245
112.348 104.559 61.3497 32 23 24
119.663 110.218 63.0179 192 150 110
118.847 122.886 53.5259 197 144 76
102.735 125.72 77.1235 221 198 148
105.353 120.189 67.2156 116 69 43
118.802 113.432 59.776 185 132 66
107.433 130.263 61.8598 252 220 195
106.026 120.042 67.008 108 63 32
111.796 123.16 53.5875 205 156 87
114.945 116.341 59.9224 176 139 97
137.54 110.841 62.0881 142 73 32
128.796 114.926 55.6843 180 121 61
109.644 123.605 54.9516 209 162 92
113.53 86.7092 49.8296 41 32 33
115.252 102.581 58.2657 36 26 24
110.626 111.459 64.1434 93 50 31
110.478 116.152 63.8618 101 52 35
116.669 109.274 59.6448 191 145 95
107.869 109.43 64.201 60 36 32
108.914 118.755 59.2495 61 23 0
107.916 127.901 47.2284 72 10 0
103.061 110.935 68.3461 25 15 16
115.75 108.712 57.3375 195 149 99
114.716 112.016 61.4213 86 51 32
113.526 114.105 61.5384 92 52 27
118.153 119.301 54.4012 199 146 78
112.74 114.717 60.7603 88 51 32
112.203 113.375 57.9911 92 51 33
120.248 113.786 59.9814 201 146 81
138.824 111.789 66.7467 156 89 44
110.079 103.815 61.4161 29 20 23
138.257 104.614 65.7618 159 88 56
123.543 104.382 62.4288 169 112 45
114.627 122.337 53.6875 202 153 84
120.854 107.628 57.0175 187 127 64
113.07 111.657 62.024 70 31 14
107.917 130.503 41.4499 158 107 86
108.727 117.657 64.5489 99 49 26
114.361 122.453 55.2895 203 154 85
132.582 96.2299 63.07 146 70 44
120.281 93.4666 55.7571 42 32 31
85.6033 72.0868 29.4766 237 74 153
130.117 117.331 53.2092 164 104 52
99.4668 126.967 87.6107 17 187 223
114.293 122.175 52.9366 203 154 85
96.3679 107.711 69.7929 79 74 78
107.04 118.902 64.8172 99 52 24
135.391 110.029 60.347 162 98 54
112.534 122.509 54.1709 204 155 86
106.933 119.269 70.1725 126 72 46
117.195 107.591 59.0113 162 120 80
113.688 112.594 64.4429 75 39 17
135.799 104.882 65.928 170 108 59
110.887 115.37 63.1955 89 42 24
105.407 120.995 70.4978 97 53 18
98.0519 84.8595 46.4241 157 118 87
132.501 114.346 55.0741 150 85 43
134.92 96.5198 65.0994 136 60 37
113.292 110.778 61.5493 73 37 25
97.2224 108.162 71.314 67 65 70
108.965 110.692 66.4406 73 41 30
116.414 109.823 62.6849 81 46 27
95.192 123.674 89.3604 21 188 232
93.8253 78.2949 36.4446 212 171 117
112.25 113.401 58.339 77 37 11
115.148 119.648 62.4719 205 156 87
124.571 91.1546 56.5329 174 111 60
111.308 124.835 50.5922 159 101 61
122.701 110.188 61.6799 194 137 68
118.507 114.966 60.9576 198 149 83
118.585 97.9041 55.9883 33 21 23
135.873 111.012 61.8423 157 93 47
115.428 102.674 57.3671 39 29 27
138.806 103.387 66.4975 112 47 15
114.291 120.902 63.588 207 160 88
89.7964 95.292 59.1405 34 25 26
139.325 107.67 67.998 154 87 44
117.909 117.701 55.0797 199 149 80
122.776 118.592 53.7424 191 133 69
113.026 120.276 59.8662 205 158 88
86.6147 91.8514 58.2492 30 21 24
122.571 117.102 55.7987 191 136 71
107.722 121.038 57.8934 78 40 4
98.7579 98.3797 58.0415 73 68 74
113.656 123.83 53.4144 203 153 84
121.61 109.362 59.5988 190 129 66
111.632 127.574 50.9251 73 14 0
78.6606 77.2426 39.3646 94 81 91
116.436 117.782 61.4781 197 155 83
112.221 122.431 63.6383 212 165 97
102.054 124.645 74.9737 207 182 142
110.041 107.523 62.0154 75 39 27
109.768 107.361 60.7745 74 36 23
108.525 90.8946 53.1759 60 50 51
109.145 106.954 63.366 58 31 22
131.307 111.039 63.8556 182 123 63
127.584 106.488 63.1124 184 124 62
109.43 106.954 61.8501 70 36 24
114.022 121.083 55.7997 203 156 88
111.577 124.571 60.0025 211 164 96
111.116 125.743 50.61 223 171 114
128.18 101.779 63.482 180 120 60
100.158 99.2356 60.8216 83 78 82
123.17 109.594 59.8695 182 122 59
111.26 125.905 47.8106 206 157 91
144.78 107.29 68.6521 34 20 19
96.2408 95.4252 58.4957 133 133 145
97.5384 87.8069 48.174 30 19 23
133.182 105.188 63.961 175 114 60
130.609 110.559 61.132 181 122 64
130.416 112.067 58.9552 182 123 65
119.781 99.9752 60.784 42 34 31
111.629 104.425 61.9698 29 20 23
135.893 112.845 60.9061 168 110 64
92.6976 112.423 80.0013 38 32 32
132.059 111.506 62.7435 180 121 63
115.144 102.509 58.4589 35 25 24
81.7776 93.3369 62.4545 36 27 28
114.725 120.96 53.2855 202 153 84
110.563 106.709 59.5825 75 35 23
89.7131 96.1404 60.8245 21 15 17
101.998 105.928 61.2317 24 18 20
116.175 90.1533 53.5707 58 48 49
120.927 115.218 58.4407 197 144 74
100.754 95.6712 57.9906 24 18 18
109.842 103.667 60.6013 26 17 20
113.291 106.939 63.4019 78 39 24
128.272 101.848 64.4498 186 126 63
94.6915 111.558 74.4618 39 33 35
120.989 115.254 57.9156 192 141 76
120.833 114.427 59.8738 198 145 75
124.191 115.71 54.3477 189 131 68
120.18 117.344 57.3575 196 143 75
121.501 117.693 56.4379 197 144 76
119.839 112.092 56.6387 197 142 75
115.623 120.973 52.0595 207 157 88
130.621 103.724 62.6303 183 122 65
113.679 123.841 54.6841 206 153 83
113.572 123.983 57.8255 204 155 88
123.289 118.217 55.8665 191 136 71
117.477 101.261 59.1327 41 31 30
109.078 104.294 61.8667 29 23 25
133.245 105.977 66.9641 179 118 63
131.55 104.429 65.8351 176 116 56
83.7846 99.6784 67.4035 23 17 19
114.215 92.314 54.303 53 41 41
135.768 104.857 64.9832 169 107 60
116.739 97.2446 56.2488 34 24 23
128.262 107.296 58.9248 185 125 65
108.815 103.027 59.0932 30 21 22
128.715 107.514 64.487 185 125 63
134.797 110.287 96.972 33 23 22
126.471 92.3813 65.6536 119 16 11
109.182 69.6632 9.39538 222 220 225
107.799 95.7418 17.5384 240 208 45
90.4312 54.5169 9.38287 233 194 28
121.34 96.6175 26.9767 78 66 66
116.893 96.6058 23.6393 62 43 3
111.544 119.455 39.4499 79 73 77
123.957 99.2522 23.0139 96 185 227
132.18 117.75 33.8396 233 197 38
131.888 116.734 31.0548 237 196 42
131.811 116.869 31.3105 237 196 42
128.569 128.433 25.2279 75 61 60
136.063 130.798 20.8509 241 208 33
132.63 134.289 21.6808 236 202 42
131.662 121.062 27.894 233 196 30
132.641 129.873 20.6365 71 57 54
132.201 130.562 22.6767 74 60 60
132.037 124.731 25.1615 76 53 59
132.014 124.77 24.9812 79 58 63
129.013 127.685 23.3502 71 57 56
131.595 123.387 24.1383 80 65 62
129.791 138.151 10.9578 240 208 45
139.142 123.862 24.206 238 203 39
132.522 119.691 29.4577 236 197 40
133.342 118.288 25.7018 238 203 39
133.49 126.895 18.4637 69 59 57
132.651 119.94 27.4414 234 199 35
128.27 134.284 21.7031 236 198 39
130.495 131.021 13.7446 234 201 38
134.782 133.573 14.7837 233 202 111
135.382 118.794 26.5919 66 54 64
138.497 129.149 18.655 238 206 35
137.228 118.216 32.3973 70 58 60
83.5272 130.227 74.2256 254 236 200
135.679 128.406 31.7665 238 202 28
139.484 117.77 39.0972 237 208 44
82.4045 108.631 63.8847 45 33 33
134.782 133.729 11.4555 245 209 35
133.158 134.985 14.9684 239 206 31
132.285 135.659 17.3696 239 206 31
85.2309 111.971 64.7611 113 107 109
119.11 106.103 65.6291 220 169 103
119.484 105.702 64.5951 215 166 99
128.375 118.835 51.3495 237 227 228
141.599 124.07 31.348 81 64 57
134.53 131.438 21.853 77 62 59
129.417 129.058 39.963 235 199 23
77.8572 93.4928 56.0636 93 73 82
80.9355 90.7166 56.0153 147 154 173
128.991 133.538 28.5491 236 208 21
134.713 131.648 22.0406 74 60 57
117.729 108.94 65.652 221 175 98
132.227 130.52 29.4283 239 204 26
104.922 124.088 67.5994 231 194 113
128.843 133.658 28.3029 231 204 27
82.8872 100.56 64.7626 155 154 162
128.478 133.953 28.6952 239 202 26
132.777 123.103 39.9972 73 60 67
127.902 131.143 31.6035 71 59 63
132.94 129.943 28.7877 236 203 28
105.245 141.546 51.5833 68 58 56
103.122 133.997 63.4562 207 141 81
118.312 134.923 40.3774 73 55 43
127.03 131.866 33.8617 72 58 58
117.732 135.421 41.2155 61 50 44
112.475 121.498 62.9547 222 176 98
75.2696 92.4897 56.6941 255 242 242
86.9768 99.751 61.6852 104 102 115
84.3221 76.7704 47.6345 195 193 206
106.246 140.646 48.5154 69 57 59
103.468 125.168 66.8244 57 12 0
86.589 100.324 62.5865 74 72 83
75.6209 98.5481 60.0146 255 249 239
114.784 138.364 41.9257 73 62 58
114.379 138.71 42.7094 78 64 64
84.1821 77.0155 48.0508 195 193 206
115.03 138.554 42.7693 75 61 58
72.2437 122.969 70.1405 255 245 229
116.943 118.039 63.2592 221 174 96
101.981 124.83 67.0175 226 189 109
75.9372 90.1553 54.6425 215 210 207
91.8876 135.284 67.5697 227 196 139
81.4729 77.6967 52.3171 89 78 95
101.278 125.577 66.2653 231 194 116
101.053 125.818 66.5929 238 200 127
88.6841 92.183 58.8906 86 80 84
106.934 126.478 61.6777 224 172 96
98.3499 133.209 62.0183 170 100 75
121.426 120.757 59.8421 63 48 53
119.108 101.628 62.654 71 51 50
99.1422 132.101 62.0188 187 133 109
119.825 118.193 59.9468 208 161 83
119.208 118.795 61.2868 219 167 92
104.254 110.338 66.0334 81 40 20
81.5323 137.89 72.2932 227 199 162
87.3828 117.54 68.0842 255 254 232
121.436 83.2683 62.6329 66 54 54
93.0369 141.199 63.2346 49 43 45
98.2539 105.168 66.5377 28 18 19
110.814 126.889 63.0854 222 169 93
69.5713 112.245 64.5621 89 68 77
126.54 124.745 47.5301 69 59 60
88.3658 92.6686 60.6048 116 107 110
98.1333 109.111 69.7939 32 24 22
103.172 123.241 66.775 255 223 161
88.5352 133.336 70.3179 220 194 137
118.07 102.776 64.3005 86 65 60
73.9091 109.95 66.5831 125 107 123
87.743 135.59 71.9279 217 180 127
120.84 112.137 62.2745 220 171 102
91.4211 122.628 67.5992 145 109 83
74.3867 114.65 69.2434 103 91 103
85.2469 141.68 68.1147 14 150 212
115.738 123.34 57.9988 219 168 87
112.577 125.168 58.1719 213 160 84
115.503 123.568 59.2829 201 152 73
95.4593 103.605 65.9749 34 25 26
86.6893 80.0908 51.7463 62 48 48
98.4779 132.786 64.9676 55 25 14
86.9009 123.724 70.6054 240 224 190
101.267 123.828 66.9461 217 177 118
141.057 124.017 24.9302 235 203 30
96.1456 133.304 66.094 200 118 70
99.699 134.714 65.8747 147 74 39
84.5827 142.397 69.8755 7 147 208
93.3201 116.607 67.9699 161 93 58
117.87 129.105 49.794 233 189 22
98.047 119.462 68.5545 143 80 45
84.3546 134.633 70.8491 231 201 163
78.5735 112.148 67.4224 43 37 41
101.613 107.172 65.3321 29 24 21
90.9773 123.159 69.7514 255 254 218
90.4637 123.774 71.1997 255 242 209
87.0484 111.921 66.9405 97 90 98
82.9383 140.969 72.0603 92 159 188
87.0618 111.903 66.4889 74 64 73
100.881 111.244 66.4337 73 37 13
78.5988 102.001 61.3855 52 45 52
133.623 125.472 41.699 74 61 68
100.789 124.347 68.0453 140 97 52
80.5674 85.0092 51.8934 170 173 192
141.359 123.775 23.7493 241 210 34
73.8341 133.513 74.3893 19 163 215
97.3004 134 67.6507 127 62 34
97.7838 111.586 66.3561 113 78 48
102.29 109.451 69.0335 33 22 20
122.565 112.254 65.8095 77 72 78
111.212 110.778 66.2046 106 52 24
97.5585 134.023 65.6405 59 21 10
91.4115 124.204 69.9422 148 108 82
98.6022 110.581 64.2989 103 66 39
111.067 125.748 59.7294 214 161 83
98.0543 124.744 68.3868 90 56 19
100.145 117.668 66.055 144 78 44
99.5629 122.617 67.4097 236 213 145
98.8227 123.893 66.39 132 100 51
99.0472 122.892 67.7863 244 222 164
99.9954 112.304 68.4796 81 40 18
99.882 122.262 66.6537 240 216 146
94.1561 121.525 68.9272 90 55 33
102.659 111.027 67.1871 74 38 12
97.4928 122.938 67.6465 252 229 179
75.0086 85.2052 51.2992 249 81 166
102.885 130.296 66.6257 63 18 0
87.9782 132.026 71.7514 241 219 170
96.2637 126.961 66.905 237 208 140
89.9023 87.1242 56.26 68 53 48
106.107 122.188 66.3275 234 195 128
90.1583 90.585 57.0326 73 61 63
123.819 111.71 60.4454 81 69 73
93.2692 126.529 67.7177 243 215 152
89.1455 130.69 68.0243 242 220 170
96.8499 125.087 65.8609 240 216 152
111.49 110.471 66.3273 111 57 33
92.9432 128.891 71.1742 239 211 146
108.788 126.696 60.1926 214 152 93
110.534 127.031 57.2548 196 136 64
93.7227 118.472 69.7412 158 93 55
101.533 111.93 68.519 72 32 7
110.715 119.333 65.5934 232 190 118
114.742 112.077 64.0413 227 180 126
90.5215 123.705 69.6312 136 95 73
87.7903 120.725 68.7621 255 255 223
94.4824 121.141 67.8029 90 55 33
99.5284 111.602 66.4859 77 39 18
135.731 120.647 40.3209 69 63 65
78.6139 99.9644 60.1229 32 22 30
88.1523 120.27 67.3642 252 239 220
95.9009 126.146 68.2582 240 216 156
114.534 112.297 64.0701 153 107 57
77.2493 138.001 75.3371 13 167 217
103.876 117.315 64.2269 110 56 20
88.775 118.233 69.7632 156 112 87
83.7282 134.252 70.7838 243 210 175
98.7719 119.246 70.0704 145 74 46
130.404 133.711 24.8629 237 206 27
99.7288 118.147 67.9211 141 72 39
90.7798 118.588 70.6099 172 106 74
94.9243 127.236 71.1527 242 213 157
102.997 118.295 66.1879 93 48 7
110.026 113.028 66.689 111 58 27
118.805 107.797 62.9556 221 174 96
113.608 103.646 66.2846 68 55 49
69.2779 116.243 68.1254 91 78 85
111.886 118.65 67.2332 229 187 115
100.784 121.048 67.1878 116 69 51
104.429 110.499 67.9579 69 28 6
101.566 122.145 66.8739 246 215 160
103.996 116.899 66.8112 126 63 30
99.8553 118.001 67.2598 142 73 40
94.3128 121.276 67.6369 135 97 76
92.9567 126.885 68.8037 235 209 148
112.841 104.519 68.2029 51 38 32
80.3905 132.618 74.5555 242 223 191
95.8652 122.319 66.0411 237 219 171
79.3828 114.891 69.5454 68 62 66
96.3157 126.125 70.8817 205 174 127
94.9095 120.638 66.2298 133 95 76
97.161 118.683 65.4258 138 84 50
99.5538 120.448 65.389 107 66 44
89.6646 121.239 70.7203 136 109 92
112.483 104.926 68.0631 53 34 27
115.048 111.618 64.6147 204 156 107
94.6331 115.281 70.9334 149 89 61
113.577 103.681 65.3812 49 30 23
115.723 112.332 61.8669 229 186 117
88.9883 120.914 67.8697 218 206 156
87.6582 100.64 64.325 148 148 160
113.467 114.705 67.1499 141 97 50
117.193 112.139 65.292 224 175 99
100.45 79.4878 59.4471 24 15 16
103.327 81.314 61.4687 18 12 12
79.8625 81.3358 51.8014 255 246 255
109.621 113.471 66.9443 110 56 30
115.131 111.53 63.738 136 88 42
101.55 113.518 68.5509 110 60 37
107.606 108.063 66.0194 91 48 29
93.4926 118.157 68.3265 163 95 58
115.272 110.761 66.9011 207 160 116
77.4872 83.1671 50.5131 255 221 235
100.352 110.607 63.9138 84 46 33
105.879 116.875 65.0576 100 47 13
91.6661 94.5393 59.7003 79 68 72
102.838 120.849 67.8166 116 71 42
83.5714 142.955 72.0119 10 154 214
102.674 112.542 67.0826 108 55 39
75.7829 123.847 72.0427 255 255 229
103.044 122.093 66.7118 115 73 31
107.93 141.708 51.551 75 60 67
116.813 114.553 65.9955 208 160 84
105.919 103.355 64.0922 35 26 17
101.875 103.267 67.4425 68 58 56
115.715 114.521 63.6975 224 178 101
97.1088 84.0137 59.3342 22 13 14
100.201 94.0144 61.451 56 45 43
107.588 115.012 66.3271 123 63 39
111.409 112.13 65.2212 84 36 0
87.5812 122.88 69.6616 172 151 124
93.711 117.892 67.51 162 92 58
116.477 111.312 62.8863 227 180 110
108.139 116.414 68.083 102 52 17
89.7691 115.735 66.8625 175 119 92
116.097 115.598 65.4947 224 176 100
109.585 113.841 64.3895 110 55 25
94.4181 118.919 68.0517 160 92 57
116.487 113.574 64.4065 209 161 85
75.6589 124.02 71.5695 255 249 221
69.102 113.012 67.2838 96 74 77
109.083 114.389 66.6907 108 52 25
86.5215 124.031 68.198 209 191 155
84.8342 120.738 69.336 198 182 159
97.1582 121.697 67.8486 82 49 18
105.27 115.475 64.1501 131 68 37
87.7777 87.3131 56.8967 84 69 66
94.4154 123.068 66.7618 118 81 54
93.1408 118.585 68.6461 159 94 62
90.748 111.997 68.5947 149 103 80
92.3536 99.4383 63.3832 55 49 51
111.315 111.617 62.692 88 39 9
115.91 114.392 64.4601 224 176 100
88.8261 106.343 66.1276 68 65 74
108.779 122.375 66.8668 220 176 101
112.554 123.129 62.3234 219 174 93
117.181 112.855 62.0043 205 157 81
130.015 128.642 35.8317 238 200 27
85.689 103.976 61.7143 58 49 52
117.447 111.542 62.3647 217 169 93
111.021 111.938 63.064 101 51 28
112.497 123.711 60.9251 226 178 96
116.096 109.882 65.3919 93 45 5
105.152 107.015 65.5664 35 2 0
107.684 94.3981 65.3062 52 43 48
123.211 117.241 57.71 242 231 235
139.641 120.406 39.1164 240 209 41
86.1131 124.538 69.5019 255 243 205
89.7368 124.644 72.4798 148 106 90
116.76 113.514 62.1517 220 172 96
116.499 114.875 67.1234 210 161 85
85.1137 78.2731 54.1087 56 45 51
75.5101 88.9004 55.7262 248 206 218
101.634 113.42 67.7682 123 68 37
112.51 121.715 59.9552 221 176 95
108.418 107.124 63.6129 91 48 31
74.9314 133.891 76.235 208 196 170
74.9415 126.145 74.1777 255 253 227
73.6385 87.594 53.9032 239 82 161
104.382 107.607 65.797 37 15 2
70.8894 118.578 67.8176 255 237 220
117.264 107.441 66.7438 240 190 131
103.505 110.028 64.4008 94 57 41
98.5365 139.084 61.3442 52 38 37
115.281 115.198 61.0076 220 176 101
114.91 115.581 61.2956 221 178 99
102.742 122.419 67.4653 235 197 150
89.0963 130.746 68.1824 242 220 170
113.543 122.147 60.8207 222 175 97
86.117 124.62 68.7472 254 234 199
112.051 111.331 65.3156 76 31 0
113.449 106.639 65.6117 104 56 34
116.493 113.715 61.2135 220 172 96
105.405 109.359 65.0939 83 42 24
94.663 143.345 63.2971 53 48 52
113.361 141.909 36.6971 73 62 68
85.2138 101.017 64.2559 147 144 153
82.4401 142.904 73.2892 11 154 212
120.617 113.849 59.3325 222 172 99
100.78 98.5988 65.529 58 48 46
112.335 117.651 60.4563 218 175 97
98.4514 129.996 65.1037 215 152 83
110.096 121.345 65.9416 221 177 102
85.1332 125.84 71.2033 252 232 197
84.3534 103.117 66.1813 102 102 112
108.582 93.2589 63.3501 60 51 54
96.1674 102.666 64.3116 51 41 42
110.32 118.649 63.7026 239 195 134
108.041 82.7171 62.5925 33 24 25
97.1877 102.711 64.5999 41 31 32
86.9 126.289 70.6535 251 229 179
106.992 77.1798 61.1078 30 25 22
95.66 82.0875 57.0091 41 27 27
95.7182 81.999 56.9204 33 21 21
117.394 108.543 64.0004 242 194 128
95.9965 140.323 62.1301 54 42 42
132.974 133.338 16.5389 240 202 31
87.7675 76.0983 53.384 45 31 30
96.6197 80.628 54.423 38 26 26
97.8715 98.2776 65.6312 70 60 58
108.451 99.3803 65.2881 61 51 50
95.248 85.5891 59.4235 31 17 17
101.155 98.1079 65.0806 55 44 42
99.9803 122.153 65.9033 128 94 56
70.8653 120.444 68.377 210 177 162
108.018 96.3214 63.8537 58 49 50
86.3166 107.964 67.1414 68 58 59
96.3416 103.823 67.7039 40 31 34
94.3423 71.9629 50.0308 35 23 23
89.4983 84.3076 56.5249 50 35 32
87.5372 107.088 65.8269 62 51 55
89.7826 84.1633 56.2672 42 28 25
120.296 133.025 40.1509 70 55 52
103.202 81.4922 62.0343 20 14 14
118.234 134.802 45.3846 66 55 51
99.1038 101.096 65.7399 56 46 44
106.146 74.2926 59.7211 32 22 21
84.708 122.294 70.1804 215 198 154
103.216 104.14 64.8599 58 48 46
99.1261 96.7201 60.7097 81 71 69
102.002 96.9992 62.9224 58 46 46
98.4374 104.933 66.8474 41 31 32
97.6929 114.207 67.8213 140 84 57
96.4547 72.9779 52.1829 29 19 18
100.559 106.056 65.3794 31 21 22
83.2968 126.307 70.1398 255 240 207
102.614 104.684 63.5885 31 23 21
106.149 109.749 68.7716 74 38 22
111.862 104.682 64.1878 101 52 35
118.432 133.294 44.3549 69 55 54
105.45 74.5651 57.4585 30 22 20
119.483 114.985 63.0025 225 177 101
110.673 139.843 42.7746 68 56 56
95.4755 119.288 70.2155 153 89 54
106.236 118.31 63.3276 90 46 11
110.966 105.707 66.9406 86 44 28
105.619 113.562 64.0901 123 60 29
92.0573 85.1843 54.5896 49 34 31
79.0853 128.663 71.6658 255 242 213
107.51 130.704 27.7816 203 156 14
108.555 117.803 43.6027 203 162 98
113.591 116.229 9.11974 137 86 69
110.526 115.693 35.0739 207 166 100
113.94 110.012 20.1902 43 2 0
113.072 112.573 6.70962 170 110 58
109.26 107.196 38.8239 108 59 27
106.42 130.764 45.9502 139 82 52
108.751 112.407 38.7576 230 196 148
111.038 98.0075 2.47716 222 196 139
110.42 105.359 18.5204 212 176 124
112.504 108.08 18.7513 218 174 147
106.297 124.428 72.7208 194 153 91
109.442 115.324 44.9347 218 180 133
100.873 89.9721 43.5922 157 113 86
107.977 110.927 38.6991 95 55 29
107.054 116.131 47.3166 221 187 139
110.97 126.509 29.3107 126 71 41
107.54 148.052 22.248 225 190 28
110.913 126.544 30.6534 170 116 72
108.047 115.194 65.0347 96 50 27
108.192 122.98 60.3763 192 147 80
107.284 117.784 67.9775 84 43 15
109.032 115.61 45.5134 104 64 29
105.261 129.242 86.6609 192 144 80
108.644 142.779 55.3091 255 225 43
88.562 133.474 58.7863 87 72 75
84.4708 133.73 46.5575 253 223 39
105.49 136.097 72.5432 254 226 39
93.9101 128.619 85.6781 255 226 36
105.746 136.127 72.0839 254 226 39
80.2021 93.3321 51.9223 255 238 210
97.2935 133.966 74.7372 97 82 85
102.129 136.891 76.8711 255 226 40
94.297 136.221 59.3066 255 225 38
94.9555 139.554 52.487 255 221 45
110.165 145.871 47.3572 253 225 37
98.9756 139.782 43.683 251 223 38
78.1252 108.579 65.2124 47 44 51
88.2762 135.286 44.0813 255 222 39
82.5722 131.341 63.6541 90 78 80
94.0469 127.23 83.3607 248 227 38
88.7234 77.6036 46.7998 255 224 198
79.6638 125.413 63.9399 255 237 200
96.5067 119.051 90.4142 236 205 125
75.6139 88.0095 43.9734 247 227 202
69.3345 105.798 50.8712 116 52 50
85.433 129.387 65.952 255 231 192
79.5056 129.092 50.7131 250 219 40
67.5497 115.654 56.5577 255 242 203
100.247 145.361 18.0002 95 85 84
74.7525 94.8365 52.8245 255 242 216
87.8487 80.113 48.4539 255 228 194
86.2538 79.6399 44.5318 161 148 139
81.4604 128.861 65.0298 255 221 185
77.5631 118.63 74.2164 243 228 187
84.3099 106.709 73.2916 116 117 135
68.8855 106.18 49.6582 255 179 166
77.9635 95.6743 50.6015 255 245 219
83.303 106.773 75.0901 127 129 144
81.1684 94.3408 56.7696 249 235 208
63.6801 109.969 48.1688 14 149 207
96.5363 126.725 82.1308 255 230 45
67.0856 101.562 50.4742 238 206 185
67.986 83.9604 25.7613 235 58 130
79.042 118.655 71.2805 255 239 201
94.7627 124.192 86.1758 240 204 126
