217.833 321.771 320.012
509.894 1157.51 1476.93
1656.75 2835.72 4421.64
252.74 400.856 430.18
-37.5093 -194.214 -450.705
230.365 366.049 384.328
220.393 341.641 333.083
165.4 134.948 88.3207
105.58 12.4609 -34.5071
56.22 9.05529 -147.408
100.665 14.8459 -48.8154
728.422 2187.46 2602.78
228.736 339.486 340.021
110.919 -34.4787 -168.077
159.956 95.5 -5.77787
151.886 43.7773 13.7023
291.484 569.723 674.874
169.307 120.204 86.5168
256.926 416.058 464.326
184.522 168.63 135.678
232.585 360.27 367.43
-849.841 -2884.48 -3013.9
139.664 59.6161 11.7565
176.977 108.183 60.9814
81.4562 -23.6818 -104.575
71.519 -3.28748 -135.026
321.5 606.303 662.417
361.433 674.729 748.3
70.7088 -22.5983 -165.336
668.619 1360.66 1806.18
-130.317 -701.918 -992.915
171.332 156.784 121.628
180.932 147.49 77.9688
222.637 335.778 345.763
169.671 123.059 89.0901
152.121 67.6724 14.0672
589.474 1539.69 1781.65
149.438 105.312 0.386501
98.7156 -32.1096 -52.5685
180.652 162.264 117.493
144.834 9.30463 -92.6269
218.917 322.423 325.073
240.991 372.136 385.928
246.133 436.743 474.671
53.5415 -60.4124 -160.242
35.8648 -184.862 -371.706
29.6093 -303.922 -455.303
143.126 136.396 82.5667
120.425 77.8129 5.55693
91.6527 -86.2501 -254.641
185.798 77.2416 2.23325
181.019 149.559 79.9961
82.2859 -24.7125 -106.173
1355.83 4029.66 4802.41
-195.946 -1139.73 -1211.28
130.515 70.0798 36.29
71.6425 -5.27347 -137.182
152.542 80.7293 15.4106
124.834 93.2365 18.3555
225.371 348.302 357.335
119.223 24.7158 -88.1281
132.149 108.948 38.9155
139.638 77.4334 45.6873
264.415 471.207 474.71
1588.24 4783.58 4875.59
6870.02 16870.7 22992.8
142.526 116.22 71.8861
250.471 401.976 399.63
176.042 159.726 122.404
183.822 146.327 130.165
181.095 150.052 81.1498
176.342 160.578 124.654
97.01 43.7431 -40.0016
138.116 55.6586 1.74629
223.489 328.163 333.018
165.993 103.698 52.4675
261.069 460.354 462.62
253.155 422.911 422.434
351.321 661.055 807.676
138.71 73.8261 7.37175
134.177 -14.9462 -58.9218
185.409 141.051 109.292
-10.2796 -328.633 -417.818
163.489 146.946 105.504
153.015 89.6337 61.8464
119.378 55.7425 20.5815
-4.70435 -203.801 -285.096
-75.9492 -571.182 -902.263
88.3439 -2.29169 -42.4505
17.3343 -185.786 -246.447
161.971 157.577 121.477
148.989 45.1191 -29.4624
154.254 111.64 91.5137
125.73 59.2428 49.6101
32.3214 -278.825 -341.471
172.287 168.465 140.02
149.685 58.9048 4.25168
579.481 1191.3 1513.49
221.408 343.513 334.521
152.957 78.0932 23.9541
