73.5859 15.5072 134.437
102.122 62.0147 66.1372
112.1 105.402 2.62831
137.55 153.629 68.1568
111.278 97.5181 13.824
107.65 76.0132 45.1967
44.0001 -172.397 408.427
54.7742 -10.2307 171.973
72.8826 28.2668 115.182
82.3474 44.8433 90.7161
106.72 89.3801 25.0135
134.628 138.968 48.5072
84.1045 84.9486 31.3943
85.658 51.8545 79.8022
185.619 662.283 818.173
87.2163 110.854 7.22576
99.6977 8.19374 143.064
-10.9663 -152.273 382.028
70.291 -120.633 333.312
309.515 1229.18 1661.83
86.4769 54.2249 75.0946
91.3435 59.1411 67.6994
102.785 60.5644 65.2567
69.2618 46.1868 87.0869
94.793 110.985 9.45486
111.489 133.208 42.8028
116.246 142.457 56.6176
194.4 320.557 322.205
70.7536 20.4623 124.916
63.3407 97.1506 11.3843
80.5599 79.537 36.9582
83.6586 69.5182 51.7073
84.98 51.7367 78.0107
91.3935 62.1076 62.4523
267.66 1051.36 1410.4
67.2301 77.8314 39.397
85.3968 80.8289 34.3948
91.4238 84.9194 28.1377
108.177 118.857 22.7673
100.585 51.8773 76.9276
68.237 55.8741 71.5576
87.1344 108.784 7.77467
89.0458 100.214 4.92375
90.4769 59.8722 64.93
112.651 130.036 40.5235
-374.168 -860.074 1449.85
3.50948 -181.592 427.431
-20.7804 -201.779 458.543
104.106 200.968 147.843
-48.1176 -285.564 585.343
-38.7978 -244.183 523.094
71.9847 45.2261 85.9604
80.0962 14.7185 131.502
81.55 137.551 53.2647
86.4286 99.5953 3.62294
118.611 185.021 125.739
160.504 200.692 150.576
1794.38 3402.09 5011.66
263.249 300.713 304.037
8.64999 -161.241 398.165
62.8135 74.006 42.3149
67.6867 71.0424 46.6289
70.4912 44.8674 85.971
74.1184 6.28804 143.973
81.8073 93.1532 12.6092
83.0004 46.4454 83.0147
83.1146 25.1458 115.134
118.252 167.468 101.007
113.921 129.599 43.6917
185.796 188.619 135.026
283.964 248.54 228.53
227.465 159.193 91.8789
43.5781 -672.705 1172.13
-61.4193 -395.435 755.709
-28.522 -251.719 537.168
66.9158 40.4968 91.7405
81.2365 9.38975 138.435
81.3765 -3.10842 157.37
84.0775 -4.35387 159.174
100.016 6.49971 142.233
40.5982 -180.638 427.876
30.9089 -160.804 398.084
61.8873 195.035 143.22
80.701 137.121 55.8336
81.5588 74.0353 39.9678
85.7196 62.6704 57.1018
98.4223 47.338 79.9969
120.968 60.9186 58.6673
108.653 19.8455 121.44
38.096 -147.475 377.952
43.1688 216.205 175.808
4.70971 -242.004 523.082
-11.5644 -277.421 577.517
75.3531 -9.31007 166.471
115.893 -562.688 1009.73
73.7432 116.877 26.1748
290.294 536.186 672.937
83.9679 63.4046 54.889
95.681 84.3873 22.4577
129.334 89.4496 13.6672
580.98 605.184 788.595
72.5086 -8.61474 165.102
85.4234 1.39808 149.357
85.8205 1.40953 149.327
82.2128 -6.44102 161.36
83.5577 18.9613 122.212
88.9398 19.0907 121.843
112.953 49.7281 74.0418
105.053 15.7886 126.405
103.423 9.18981 136.589
-567.482 2368.87 3474.44
-28.0418 520.14 645.967
18.0967 350.997 387.084
60.6823 487.668 598.796
45.1566 68.5585 46.5434
85.997 127.758 45.9833
99.8701 126.373 44.2889
198.095 306.963 325.705
59.5206 -14.8483 174.532
42.9146 43.7197 84.5005
50.5161 23.1308 116.064
95.4853 111.684 22.1629
94.0402 81.9565 23.8055
88.4594 -5.3456 158.846
-90.4279 -604.544 1091.19
63.4871 25.5129 111.644
84.5042 64.2663 50.9624
103.994 105.693 13.809
140.974 316.645 343.074
57.6885 -18.6828 180.026
48.8859 9.00671 137.142
69.293 36.395 93.8707
73.7062 40.406 87.4879
79.3752 15.2612 126.433
87.1778 81.1951 23.3168
187.281 269.255 272.879
-9.11485 197.813 156.255
59.6755 12.6661 130.68
63.8172 19.7175 119.535
68.2484 31.5108 100.798
122.393 413.829 499.662
46.9625 2.29881 146.916
131.806 -213.305 482.418
97.3843 -218.591 491.825
71.5363 111.432 25.2685
89.1156 88.6072 9.98413
97.1885 64.7164 47.2169
59.2864 -14.7646 173.085
64.002 107.908 20.1455
73.4855 46.8734 75.5667
86.078 45.5832 76.9817
89.0473 48.9453 71.1603
71.6612 4.30573 141.955
93.9327 153.435 95.2495
94.0341 135.876 67.4252
106.165 287.174 309.683
1399.26 5565.65 8749.02
207.77 545.93 725.809
234.614 -1135.32 1955.31
71.6217 72.424 32.0255
110.456 87.3677 6.86048
66.8383 66.6518 40.6508
84.5967 37.5775 86.1167
-1129.46 -4067.05 6744.86
49.1284 0.691963 146.447
66.2728 63.7935 43.7487
73.7443 19.6816 114.806
93.1291 188.663 159.505
91.3317 138.184 77.7439
75.5927 75.5583 23.0387
98.2329 24.9666 104.566
216.38 130.753 71.458
39.3939 14.842 122.699
75.0508 116.329 43.9798
-28.5745 -239.129 539.096
284.788 225.044 228.301
433.387 385.411 494.785
76.8046 -12.1985 165.428
159.02 61.5316 42.2887
76.8237 -15.9552 171.465
22.2102 -170.299 425.819
-37.8989 -212.178 496.391
1475.58 2538.07 4061.2
-172.51 -416.73 836.444
76.2374 19.4316 113.144
78.3857 16.7524 117.466
168.458 131.13 73.2453
366.634 397.783 517.458
146.816 41.9924 73.7311
16.355 -153.363 398.864
62.964 172.455 138.42
76.2675 -7.89201 157.747
112.508 24.2588 103.633
127.318 38.3916 79.8834
135.817 38.3407 79.6774
144.465 39.1714 78.0162
162.443 -774.811 1419.1
88.8762 -581.015 1102.08
-71.3077 -462.59 912.293
-34.4062 -274.972 601.68
70.1185 64.2041 38.3383
76.5715 23.0902 106.075
103.795 49.2044 61.9745
106.031 45.2891 68.3693
106.395 43.8884 70.6721
148.573 86.2939 0.86997
121.367 25.5123 100.532
15.2834 568.861 796.545
51.9019 358.88 449.856
65.7522 190.562 171.419
-73.7068 -478.76 942.498
277.225 453.75 614.825
78.3333 38.6535 79.6592
77.3834 25.6797 101.032
85.3966 7.89247 130.303
96.5201 13.5953 120.444
100.545 5.58973 133.604
-24.3232 -185.378 455.426
74.1602 8.64441 129.147
92.7805 25.9722 99.6427
9.30862 -403.122 817.867
67.8428 48.6465 62.2831
74.6692 41.2935 74.3215
136.852 372.932 482.459
73.4329 84.4665 1.91938
59.8078 32.0758 89.4356
60.7502 32.4312 88.8063
66.6351 48.2074 62.1273
354.93 855.826 1303.17
52.9241 -3.96983 150.038
56.2112 -0.439339 143.862
66.3181 -15.5498 168.926
67.9586 19.0142 110.552
76.1492 142.035 97.3912
96.7915 133.972 84.5186
56.1589 1.01494 141.016
94.235 -185.889 455.563
47.6652 -3.63265 148.915
52.2977 -2.54978 146.918
55.7744 55.3125 48.5846
70.2644 62.1911 36.4115
75.1556 8.57462 127.125
82.3918 -17.228 170.608
51.128 34.704 82.8485
104.336 121.944 67.686
52.1392 -3.83375 148.223
54.8601 3.74358 135.039
71.3297 1.87892 137.501
88.5081 -132.692 367.519
75.2285 46.5284 60.6539
44.0274 3.00522 136.121
72.1636 45.7378 61.4045
76.2063 33.0798 83.0505
81.8354 -18.4636 171.581
83.5407 -184.486 457.869
75.0684 -245.872 564.121
72.4742 -274.245 613.64
186.537 290.522 366.44
73.9167 42.981 64.6871
71.7448 23.7276 97.9767
73.2793 38.1748 72.599
85.1326 103.825 42.3961
319.409 710.799 1109.72
69.1805 40.807 67.4784
75.3082 -14.7814 164.204
82.3081 55.396 40.9952
-198.299 579.39 870.276
64.4157 41.4597 65.3432
85.3851 59.4129 33.0233
-57.7544 -283.763 641.861
71.6602 21.214 100.273
81.3331 64.2361 23.5315
84.6373 69.2212 14.6032
99.4746 80.0935 5.15103
72.6878 22.0952 98.1014
83.0514 -5.15701 145.92
75.7437 -16.7482 166.587
80.7307 128.525 91.3245
-57.2257 -242.865 572.411
72.7978 30.1179 83.2701
84.3232 18.6644 103.178
466.268 433.436 647.523
81.2988 -11.9788 157.584
135.548 31.2608 78.6833
144.274 31.2821 78.3195
37.0072 -126.37 362.769
30.4508 -120.739 352.988
61.6968 149.961 130.581
68.0564 101.226 43.9474
74.013 23.8681 93.7236
83.6527 29.6322 83.0879
355.031 399.974 587.222
-555.256 -797.257 1580.97
145.982 70.0202 8.44874
196.785 108.826 62.7193
158.134 49.3489 44.8871
40.097 -115.25 343.228
24.6034 -134.604 378.401
52.2766 285.821 374.825
82.1119 296.336 394.766
94.83 174.963 178.047
77.6654 73.3356 4.14555
237.065 324.805 452.456
59.1873 -94.0178 304.787
81.0269 -7.55004 148.692
81.4127 -11.8623 156.424
83.2567 -10.5933 154.075
100.115 0.36869 133.743
40.2467 -159.567 423.574
31.2953 -162.263 428.763
-42.8541 -271.703 628.445
-96.1563 -358.412 786.445
50.1419 -11.6163 156.93
80.4367 22.5135 94.3039
85.9786 20.616 97.5112
124.226 72.7623 2.13101
170.324 114.593 74.9659
79.7346 -3.7702 141.534
86.4152 3.18436 128.736
95.6067 6.48203 122.439
93.364 -5.96825 144.979
83.2428 -17.6607 166.344
38.1023 -361.623 789.957
19.0723 -210.677 517.725
56.4199 120.03 82.1544
58.7185 129.265 98.9651
72.495 113.05 70.1328
86.4467 33.074 74.1441
16.5051 -264.046 615.301
81.4791 60.7369 23.657
74.1728 -129.28 369.237
172.94 351.156 509.109
-75.4185 -729.332 1468.92
195.41 292.237 403.591
82.9921 44.0169 52.9282
73.6293 -110.787 335.951
82.0149 -122.178 356.737
75.9329 86.7065 26.1677
115.98 191.355 219.743
64.1879 7.85646 118.803
92.3772 -169.376 443.614
81.3169 -108.112 331.446
68.2703 -149.018 407.315
71.4841 69.2894 4.67716
97.1418 81.4606 19.1341
48.6014 -22.2517 174.244
1826.96 -2456.68 4613.6
54.6009 -12.7168 156.251
-9.01629 216.254 266.058
59.964 0.891098 130.524
95.7177 -187.476 479.296
96.0159 80.2368 20.0806
53.8956 -10.9359 151.958
98.7477 -146.315 403.926
54.2757 -12.5128 154.521
75.4113 -29.2032 184.9
-7.44173 86.5657 31.6482
59.8038 0.498371 128.199
64.8659 -27.1195 180.574
77.4714 -19.3088 165.157
76.0036 -147.664 410.531
41.2257 14.1128 102.398
150.708 655.937 1130.81
73.172 5.60998 117.226
74.1792 -1.78709 131.366
82.5218 -5.63158 138.401
83.4397 -10.3282 147.368
85.0205 -16.6246 159.375
217.491 85.8768 42.4453
75.6765 -425.598 945.673
42.7257 -449.971 994.819
-82.3487 -1597.83 3209.24
90.4404 108.323 82.1292
73.3774 18.2834 91.8869
83.4646 19.8936 88.37
87.032 13.5029 100.558
85.7229 4.45811 117.893
83.9392 1.69183 123.144
49.3739 -39.8439 204.804
82.2971 -21.9481 168.737
25.9805 -107.435 337.016
34.6401 -27.9427 182.143
40.5447 -16.0601 158.785
62.8572 -210.336 536.582
100.327 196.949 260.105
1512.22 1452.15 2774.29
262.653 152.712 181.582
220.127 100.327 77.22
143.231 34.8099 54.0222
155.161 37.3941 48.4571
156.839 37.9084 47.3785
200.168 62.2277 2.11903
63.7012 -88.7461 299.782
31.5129 -152.914 427.553
15.0925 -139.925 402.665
4.97781 -150.745 424.395
-259.153 -675.235 1469.91
-153.979 -375.441 874.364
-406.221 -704.923 1534.63
150.061 94.7522 65.9592
237.22 175.456 228.977
108.771 19.6687 83.8019
119.102 22.1382 78.4829
38.1434 -127.99 378.912
336.771 4646.79 9100.11
179.927 341.799 558.328
137.704 98.4005 73.9743
202.638 160.184 199.219
90.6488 8.64157 105.781
61.3379 -136.173 396.702
67.2327 -92.3461 308.362
56.738 -114.493 353.871
34.5036 -145.426 417.497
76.1642 -94.2711 312.435
69.6559 -93.3181 311.072
154.078 144.622 180.22
76.5442 -120.651 367.244
71.2568 -98.7347 322.775
85.8661 -180.083 490.827
4243.45 26565.3 55164.9
-59.7799 -608.824 1390.37
94.854 -169.125 469.414
190.749 2161.51 4418.47
35.2279 -26.8473 174.741
64.8576 -3.42732 124.283
72.4778 -9.63449 136.973
64.6998 -18.9908 156.829
77.7605 -19.8331 158.021
-86.319 3678.68 7619.11
48.6237 6.29531 103.99
55.6625 -8.87612 135.652
-215.249 -442.464 1061.47
66.8259 -9.60248 136.536
53.5313 -35.2768 191.231
61.7582 -30.2907 180.327
69.8059 -23.2626 165.117
65.302 -30.5681 180.662
68.2892 -30.5896 180.574
66.6705 -34.0749 187.938
63.4037 -38.2087 196.7
-12.1091 102.176 98.6923
7.19741 80.5461 53.5378
31.118 -110.068 352.127
38.1889 76.5378 50.9252
12.3774 -145.786 431.119
2.87667 -146.188 432.434
-13.6956 -162.723 469.032
-112.313 -246.329 654.778
60.0779 -24.1854 165.314
320.557 273.131 493.027
384.773 299.56 553.464
41.4237 -100.199 331.359
537.282 565.431 1142.39
-336.969 -506.465 1234.62
134.583 27.0599 49.4826
173.019 48.5118 0.85369
36.6157 -115.203 364.748
24.5781 -121.751 379.628
34.3968 -30.2376 179.052
-58.8419 -345.243 872.933
-72.7313 -311.408 799.535
-126.115 -351.491 889.795
-138.4 -324.877 832.126
156.786 137.151 193.756
190.246 154.584 233.559
1106.49 1355.22 2908.73
376.931 342.048 653.324
123.487 47.4707 4.0359
167.784 81.2863 72.3004
150.739 50.5209 3.9573
2342.79 2027.42 4447.74
95.7205 -5.92963 122.388
93.5355 -15.9382 144.339
1775.7 1063.79 2313.13
71.1105 -33.5235 184.03
-15.5274 -621.477 1486.27
720.284 1596.32 3445.86
116.038 27.2136 47.675
113.065 2.28864 102.851
106.7 -10.9926 132.312
81.8915 -27.0255 168.61
72.4002 -91.5201 313.179
108.091 -160.84 467.661
58.1213 -142.326 429.268
71.1854 -94.6867 321.438
117.199 -293.398 773.235
77.6769 -14.4031 137.294
76.3495 -119.626 380.212
86.2796 -26.9917 164.869
61.9641 -41.3842 199.266
46.1431 -36.2643 187.733
63.0856 -19.7574 148.128
70.079 -26.9063 164.565
77.6917 -24.4944 158.522
66.0604 -35.4351 184.607
68.9476 -35.6194 184.896
139.667 -438.599 1131.73
-53.5803 416.633 878.936
39.2603 -283.157 771.621
34.2883 -0.268764 102.535
41.1216 -0.712719 103.24
41.7367 -0.375408 102.41
55.9856 -1.14791 103.518
55.4004 -14.9196 136.006
-47.6837 -191.069 559.09
50.9943 -23.2893 155.95
59.0999 -29.3851 170.018
-321.43 -316.933 873.401
260.13 93.9803 134.413
56.2952 -43.6712 203.9
192.324 33.6217 11.794
31.5523 -26.3816 162.392
2.32218 -137.728 434.409
-116.776 -230.947 667.156
-660.585 -761.203 1986.67
354.76 232.098 484.858
63.6157 -32.6229 175.516
-120.854 457.019 1013.61
-8.75598 -174.32 526.068
-59.5917 -211.697 620.296
-103.139 -216.954 635.497
53.3025 -32.1637 174.601
61.0863 -27.5045 162.759
336.4 250.209 532.958
1965.53 1693.37 4158.96
147.109 35.1996 4.01378
241.861 109.801 184.284
277.887 121.814 215.724
53.4042 -42.8012 200.529
127.375 4.71695 79.6673
100.095 -17.058 134.514
60.4493 -98.943 338.521
41.3782 -131.856 420.761
38.0469 -115.676 381.021
31.2756 -122.934 399.294
23.8628 -122.831 399.442
65.0401 107.103 170.767
-85.1868 -306.442 859.33
-82.1201 -296.703 835.096
48.4624 -27.5814 162.828
118.205 88.4269 128.089
118.956 62.9753 65.1375
124.869 37.0845 1.37997
166.584 62.0778 65.5096
96.2733 -6.40052 107.579
93.6971 -20.849 143.535
-2.92294 -212.145 623.625
136.78 35.8 0.514563
55.0455 -119.79 392.849
50.8582 -130.412 420.92
94.473 137.035 258.563
46.5587 -171.24 526.272
83.923 -127.368 415.458
86.3342 -30.8591 164.913
72.895 -85.7682 309.145
148.429 -229.708 683.145
85.7161 -96.4026 337.094
156.213 14.6513 38.4792
74.9856 -37.331 181.062
52.041 -500.859 1417.51
88.0357 52.3475 58.7863
67.9208 -25.3822 149.353
77.6216 -21.8156 139.278
67.8473 -35.4551 176.129
61.8028 -41.2892 191.982
66.8134 -39.9919 188.22
-68.3182 430.613 1066.26
13.9146 291.811 698.732
35.681 15.0798 41.8947
36.3507 -30.2629 163.52
56.5092 12.3653 47.6725
50.44 -20.3425 135.841
58.8286 -15.826 123.184
52.8614 -31.088 164.389
55.3873 -28.5234 157.167
55.22 -33.2656 169.888
-78.8946 -156.498 512.285
53.0925 -43.358 196.876
52.9661 -43.6149 197.503
58.4754 -41.7198 191.79
63.4678 -40.212 187.035
229.434 47.0087 64.1063
150.426 2.84743 62.1144
166.658 8.29073 46.0275
41.7643 -99.4453 352.741
36.2513 -99.4996 353.232
199.39 48.5073 69.673
237.696 51.7963 81.2236
56.7128 -46.7085 204.887
242.936 866.536 2365.13
-87.1545 -279.426 865.686
-133.665 -296.426 916.195
1534.74 1491.48 4196.04
-631.601 -650.273 1938.38
1181.44 952.717 2669.74
1805.49 1338.13 3790.08
124.506 6.57919 50.6523
136.853 7.98279 45.9361
198.619 46.4749 66.1125
59.1811 -42.9719 193.913
41.4573 -123.129 421.023
38.0938 -108.818 380.869
33.9769 -155.405 512.972
20.9512 -139.407 468.591
-23.3724 -193.367 623.834
1436.15 1375.06 3899.25
57.7155 -31.3602 160.862
64.4315 -29.1179 154.092
100.875 -4.36849 81.751
-138.131 -190.207 622.762
75.3783 -28.2538 150.787
129.652 296.136 793.322
74.1435 -91.2977 331.543
117.597 38.9263 48.7976
39.7706 -85.3865 317.16
96.959 13.2523 22.7334
-5793.52 -11599.1 35292.3
63.2988 -89.5739 330.43
28.5064 -142.636 492.457
-377.319 -977.644 3072.97
-39.8694 -148.426 518.179
83.5323 -12.1265 93.5409
97.7419 -13.784 97.6766
94.2951 -24.5784 130.925
78.4197 -39.2656 176.78
-37.2169 -623.769 1979.06
312.464 978.426 2968.93
54.3209 -4.8389 71.9445
87.8843 35.7155 55.2124
99.9816 28.6204 34.1598
65.5969 -22.1064 123.977
76.6503 -18.6679 112.612
64.8984 -32.9103 157.26
59.8587 -41.7683 184.911
67.7917 -39.416 177.084
74.5538 -37.6389 171.119
57.6326 -46.2721 198.94
66.8333 -43.0318 188.256
71.6938 -40.9339 181.413
-10.982 120.709 318.083
24.2789 6.69233 35.1967
59.9746 -33.0077 156.782
55.6381 -37.3405 170.519
59.3407 -37.54 170.757
91.1115 -18.587 108.992
-121.656 -161.004 571.321
62.3388 -42.3096 185.309
257.23 53.1915 130.84
67.1823 -42.9644 186.491
6.36905 -111.615 409.871
56.1757 -17.8706 106.361
68.7247 -10.1248 80.0376
54.2884 -29.1925 142.223
-711.83 -815.809 2736.8
-29.4743 -111.733 414.546
-286.436 -297.167 1033.14
352.314 156.608 483.294
847.634 481.86 1575.01
409.663 167.918 524.167
157.253 8.43729 11.3868
172.838 10.1835 4.57448
234.472 33.1625 74.6368
46.9571 -94.2941 353.908
41.0565 -91.3364 344.683
40.1564 -107.765 398.654
31.4785 -108.138 400.511
-5.4751 -179.677 637.911
-22.6429 -174.895 623.506
-27.1669 -149.078 539.245
-152.454 -247.074 869.554
-201.096 -258.72 911.288
323.833 161.982 507.21
185.576 32.2259 71.0676
119.304 -11.815 78.0676
107.463 -227.882 832.887
357.476 613.245 2183.4
6.1185 -192.403 719.419
98.9809 -31.4848 135.184
112.217 -28.5812 123.73
46.993 -141.754 536.682
33.6611 -126.118 481.286
20.2587 -127.877 488.669
210.194 466.579 1674.68
241.289 334.835 1200.82
-6278.91 -8423.87 30968.7
103.954 18.5448 47.2622
134.667 30.0358 91.2659
122.61 7.93177 21.3147
83.0363 -30.2415 130.826
94.7889 -27.6622 120.552
77.9175 -38.2928 160.272
49.5742 -134.779 513.799
90.8703 -21.705 98.3459
75.3222 -44.2985 181.621
81.7728 -41.306 169.938
27.5249 -119.032 460.902
25.614 -124.483 481.579
38.0943 37.8303 120.121
60.5488 200.361 723.836
39.1274 7.95123 24.2009
52.2942 46.2228 153.774
59.0641 -14.1055 69.5709
63.8639 -24.138 106.537
66.0075 -45.178 184.579
-231.62 464.76 1701.79
25.3075 -8.64042 50.0224
27.1366 -5.40457 37.7061
28.3262 5.27889 21.8302
19.2112 -353.667 1349.78
36.1101 -16.5863 78.0663
22.4275 -94.323 373.096
51.0348 -37.1352 154.339
131.515 43.3058 158.589
51.7672 -38.7653 159.419
72.5424 -31.9635 131.365
34.8947 -84.3139 335.904
-25.8502 -953.601 3719.66
70.9351 -36.2633 146.533
73.9219 -38.1134 153.476
372.707 109.917 451.794
40.3364 -90.3219 360.62
35.0317 -87.223 348.919
30.062 -0.815357 12.6311
95.5077 -5.01073 18.077
40.5393 -94.482 379.569
57.3885 -46.3056 183.917
-1.58023 -108.936 447.413
48.349 -92.6581 376.236
-236.783 -525.972 2205.06
-837.154 -696.326 2968.53
133.008 -4.26486 17.3123
-27.4725 -161.594 676.998
773.372 417.336 1911.93
134.879 -26.5443 85.3174
10.2215 -91.2264 381.662
-186.898 -445.36 1969.87
137.155 -1.37197 33.859
69.4944 -84.9947 352.686
55.3712 -85.3664 355.746
116.796 55.7782 304.03
36.9982 -81.4569 343.328
30.0868 4.96893 67.8362
71.4779 -37.7914 130.301
75.3199 -109.207 479.863
62.2713 -93.5718 406.645
150.471 43.5089 318.539
92.3572 -47.0167 165.437
71.5027 -74.2201 315.559
374.015 211.796 1294.43
77.0677 -49.956 179.451
59.276 -107.104 355.956
56.7405 -100.226 339.61
28.9826 -125.452 403.558
71.2454 36.6509 148.279
63.2971 -7.63428 110.839
55.172 -305.235 848.55
38.7918 -219.703 637.984
28.5539 16.6259 116.52
9.38608 -670.798 1763.06
36.3732 26.1694 132.641
52.9221 45.7625 164.334
69.3564 85.6574 227.453
77.2303 90.2434 235.199
93.0963 76.1242 214.636
64.6981 9.37784 109.617
67.2954 7.44003 106.813
44.1485 -35.5042 180.35
52.6837 -24.5086 152.034
19.9426 1044.2 2542.41
35.068 -13.1415 123.926
41.2589 7.80557 107.099
53.6047 6.49506 106.052
46.9947 -12.1402 119.954
50.6497 -8.4821 110.358
52.1829 -10.5029 115.37
45.6654 -30.7263 167.008
43.0015 -9.76283 113.683
46.0992 -7.93149 108.755
55.2257 1.591 99.5583
44.1229 -31.2143 168.05
50.353 -25.7249 153.474
51.6754 -25.961 153.971
28.0104 6.54785 105.782
37.2419 1.71631 98.783
-29.7916 34.9112 147.361
-138.397 190.877 391.737
45.4709 -22.3649 144.223
21.2662 7.47989 106.199
28.4013 -23.7752 148.876
32.4043 -19.3727 137.098
38.4171 -19.9448 138.086
41.9635 -21.5936 142.077
43.506 -22.5212 144.361
87.3206 72.2249 216.85
-54.4547 -233.001 699.672
48.2972 -24.2376 148.052
165.101 172.34 387.181
31.1484 -4.645 97.7312
34.6455 -29.3801 161.93
38.9555 -25.9638 152.581
17.0249 -90.8734 325.16
42.7286 -35.1371 175.571
70.6801 5.25978 111.51
99.8848 49.686 191.816
12.7821 -84.0572 309.724
53.1085 24.5965 149.439
268.738 762.236 2037.47
10.0371 -115.39 397.198
20.6852 -81.8567 303.753
52.2895 -1.0584 105.763
75.1674 45.8395 191.081
16.3099 -88.9216 325.19
56.0985 -4.56491 103.2
14.4294 -87.5197 321.721
51.6371 -18.8975 121.764
61.9657 -4.29065 107.745
76.8079 19.9665 156.06
55.315 -19.0795 116.953
47.9072 -31.1317 153.421
11.7851 -85.3637 322.763
-525.342 8302.6 25954.6
29.2878 -84.5261 319.702
29.087 -77.669 298.472
36.475 156.808 484.699
7.15002 -300.073 1038.69
34.4992 -18.9089 103.744
32.4085 -45.6961 193.241
32.7753 -44.5098 187.707
23.3609 -76.9868 300.721
70.303 23.2837 212.192
26.2413 -79.6113 310.427
11.6493 -151.046 572.596
35.4913 -75.456 297.454
49.9617 -146.469 330.412
137.459 78.2512 107.502
296.721 414.942 228.8
-15.326 -372.664 556.781
-33.5071 -382.461 566.813
-49.3178 -378.405 563.062
516.804 1574.68 1386.13
137.796 208.372 22.8964
148.022 199.913 14.6624
135.512 148.568 36.6068
162.461 198.572 13.5794
92.3679 42.6653 142.532
99.1678 52.3448 132.779
98.2344 43.3188 141.78
41.5152 -239.927 424.944
96.9851 163.043 22.0832
77.1129 76.6878 108.438
83.2474 90.9218 94.1115
101.953 116.281 68.4518
69.4102 26.446 158.66
74.717 7.01935 177.996
63.9367 -12.11 197.257
-10.5872 277.326 91.6599
7.69038 275.948 91.0287
64.461 27.2247 157.64
83.5215 71.2198 113.144
679.089 1359.8 1207.56
656.619 1283.09 1129.26
165.372 201.93 22.9356
139.139 117.282 63.588
157.378 144.21 35.884
106.364 54.9104 127.443
113.188 55.5909 126.627
35.5356 -156.873 344.39
33.4019 -333.391 524.627
-21.9204 -636.069 834.426
-66.9737 -707.155 907.768
-18.1321 -294.8 486.193
-45.5323 -354.33 547.423
94.3222 120.876 59.8523
96.3908 70.4582 111.311
180.334 203.413 26.0195
147.952 114.625 65.2584
-106.29 -1497.45 1720.03
621.821 1873.76 1744.99
30.9453 -214.466 407.163
194.941 284.06 116.852
116.993 103.132 73.4652
113.595 81.888 95.7549
66.8187 -111.558 299.083
-4888.77 39286.5 40929.8
14.3614 789.759 645.194
57.6088 248.356 78.1693
-285.065 -2168.2 2462.71
52.2392 92.1035 85.6233
56.3406 74.4886 104.043
99.4829 211.605 40.7361
96.7999 151.994 21.9068
105.989 147.839 26.0979
107.68 149.108 24.7341
117.91 148.26 25.4334
59.7245 10.7789 170.787
83.3483 50.9043 128.164
60.2927 -3.15572 185.352
77.6226 20.1878 160.459
78.1822 15.2351 165.661
81.9721 19.8568 160.726
69.1499 -3.45531 185.428
69.5802 -3.47755 185.444
75.2972 0.366989 181.285
57.715 15.2101 165.777
63.2183 -2.95125 184.703
326.243 430.477 281.067
159.268 139.231 30.2878
30.1303 -189.445 384.242
-100.102 -469.773 686.753
-103.617 -470.77 687.888
512.6 1213.51 1128.09
276.362 506.62 366.143
154.761 198.849 34.3726
-3779.74 -7785.8 8607.04
120.052 107.031 64.5739
120.986 106.939 64.6549
122.648 81.1581 92.3098
149.387 108.998 61.8903
167.015 131.679 37.1882
96.4087 27.1691 150.686
43.5006 -258.938 459.622
31.44 -207.133 404.084
8.04194 -270.534 472.799
-3.12053 -274.087 476.842
1.44514 -236.781 436.589
101.811 218.638 56.0397
128.664 313.098 158.382
249.151 527.642 391.996
194.12 322.608 169.916
-19.5407 3553.46 3657.83
86.57 213.029 50.4303
72.7044 -152.777 345.757
142.451 195.141 35.094
67.9617 29.508 146.841
77.4255 49.6084 124.464
83.8748 62.0237 110.711
68.1947 -128.358 320.049
120.622 151.152 11.8629
137.028 177.985 17.9489
68.0138 26.3439 149.813
101.727 106.633 60.204
41.2811 -223.449 426.234
58.8021 8.92738 168.784
62.2207 -2.07339 180.896
67.2251 -9.18292 188.669
48.7038 -1479.75 1819.48
97.3751 145.616 16.3526
107.486 139.559 22.8651
58.4158 9.21422 168.277
61.0943 2.56708 175.602
77.3338 23.4037 152.146
78.1081 17.6023 158.57
82.502 23.4976 151.938
71.6057 1.47505 176.518
62.3864 -12.6225 192.306
64.9234 -12.746 192.392
-11.2582 440.036 310.606
40.6509 230.83 78.5693
41.6533 68.6361 101.948
48.7896 66.0253 104.715
55.9134 64.7364 106.009
-74.419 -437.515 672.937
-103.203 -450.512 688.168
-143.111 -488.984 732.318
399.791 831.704 767.381
1420.67 3132.11 3382.17
-298225 -636878 724420
201.624 270.916 131.464
111.938 42.2288 128.401
44.516 -178.193 379.096
15.6137 -184.924 387.317
389.602 1549.49 1585.47
152.163 229.779 85.24
110.484 57.5127 110.814
156.609 121.576 37.2637
35.7318 -157.329 355.943
-282.57 -818.232 1112.41
103.996 112.691 47.9298
113.077 103.593 58.0731
195.15 258.573 119.689
173.883 192.064 43.6962
219.605 267.074 129.86
88.3094 32.9884 138.658
95.0792 42.653 127.524
115.086 52.8908 115.46
113.323 43.5607 126.108
17.3192 -309.464 530.323
68.6757 310.16 177.73
76.468 78.2547 86.828
98.0527 31.0439 140.262
33.2347 -298.683 518.379
-5.41219 -406.009 641.873
56.3423 106.437 54.5984
60.118 83.2034 81.1063
67.8574 77.4784 87.4935
106.376 131.977 24.3073
63.0395 4.73689 170.747
38.5098 154.275 10.2163
109.374 299.296 168.288
93.0638 87.3545 75.2207
104.692 109.357 49.7296
56.2276 2.50319 173.073
55.4964 17.2694 155.963
60.8796 11.0682 162.999
76.2797 56.1072 110.549
77.2426 54.1874 112.569
83.2966 69.5937 94.423
83.9685 58.8033 106.902
71.6221 32.7065 137.104
72.3926 32.2888 137.572
118.529 -187.548 392.133
60.4463 12.4733 160.611
63.3265 19.7649 151.938
67.9843 24.0655 146.826
58.0403 7.96869 165.591
60.8875 12.8669 159.807
58.0597 6.89563 166.639
109.868 114.099 38.9231
102.784 95.997 59.9206
121.937 197.419 60.9854
113.915 130.757 18.056
-1573.6 -3801.11 4723.98
-776.348 -1792.39 2323.57
-109.987 -403.698 657.949
110.687 119.904 29.2927
98.8518 44.0765 119.957
44.48 -261.458 485.749
33.7385 -315.746 550.798
4874.5 12613.5 14992.3
207.908 269.226 151.433
216.813 249.388 127.95
238.689 249.696 128.808
95.0879 29.9504 136.598
116.075 49.0982 113.241
39.5287 -136.141 336.488
-5.70686 -390.532 642.462
-28.4083 -393.395 646.404
-25.8297 -299.525 533.857
-211.599 -649.439 957.355
50.1111 -22.1522 199.702
99.1915 53.5694 107.742
107.092 36.5736 127.955
122.287 48.2526 113.6
31.8602 -187.653 398.889
22.1488 -194.767 407.656
-41.9507 -304.279 540.675
128.94 253.826 134.184
109.878 84.1156 70.3946
121.925 137.621 8.89421
112.569 89.779 63.2757
150.42 120.403 25.5301
87.6613 25.5815 141.035
91.3965 17.8178 150.314
35.9816 -363.857 612.376
-436.412 -1666.75 2196.56
-537.307 -1932.76 2520.11
83.7261 68.2535 89.253
84.2051 66.8335 90.959
92.8912 79.3046 75.6816
105.661 96.2746 54.8713
128.005 121.347 24.0461
120.195 88.8836 63.4768
120.857 87.8929 64.6596
74.2698 0.306381 171.531
77.957 0.0357056 171.774
78.4278 -3.60124 176.167
47.9281 -291.069 525.262
33.6582 -378.901 632.066
14.6758 -398.048 655.712
-209.819 -1488.93 1983.3
505.254 1948.09 2199.7
104.591 196.441 67.4254
120.5 246.036 127.989
-91.8001 -1156.75 1581.36
46.4896 40.5991 122.743
63.6173 -1.03586 173.016
61.784 23.8449 142.641
60.7354 -5.06342 177.804
75.9956 54.4162 104.69
82.7287 33.798 129.725
107.388 103.998 43.1138
70.5038 39.5717 122.462
83.9787 60.1314 96.931
109.841 114.328 29.8537
109.394 87.8146 62.3853
58.9253 -8.90651 182.112
58.3659 1.54024 169.19
62.8263 -0.297226 171.346
66.5563 2.91761 167.306
70.555 45.9205 114.148
94.5982 104.649 41.2652
100.731 71.3344 82.1488
65.8386 3.69339 166.158
65.2256 37.3368 124.357
96.1474 106.082 38.1129
100.119 91.4292 56.1818
115.468 121.653 18.0702
97.2231 59.1732 95.8471
101.204 58.8691 96.1309
129.01 211.901 96.0105
112.379 150.437 19.2837
107.628 81.4641 66.9741
111.841 114.943 24.4754
114.106 109.542 31.1849
-251.685 -778.83 1154.77
-146.06 -493.935 794.544
-215.276 -564.608 884.936
100.115 72.6406 77.0646
101.633 68.1159 82.7163
202.559 241.985 138.285
524.944 876.893 945.818
-140.931 -475.11 772.887
99.9917 107.579 32.2897
107.701 89.3128 55.1585
225.152 292.091 203.617
-94.6731 -356.857 623.701
88.5229 59.6313 92.6773
168.874 198.645 85.1912
-607.573 -2055.28 2789.44
-89.2936 -384.237 659.265
2225.63 3918.32 4849.22
132.376 124.649 8.70528
154.185 199.046 86.6784
469.287 755.052 800.798
114.936 147.801 21.3226
107.919 99.2043 40.7589
120.002 122.003 11.4196
43.0658 -229.908 461.913
31.9468 -230.907 463.459
374.909 666.869 690.222
354.781 602.94 608.176
115.871 111.099 24.8223
158.498 161.279 40.3179
92.5491 37.9235 118.697
110.273 53.5797 98.2387
108.838 41.9738 113.117
121.042 55.9635 94.9255
94.1199 -509.719 820.583
74.6559 126.743 8.88199
85.1428 120.539 12.5969
92.7123 67.9482 79.8498
94.667 70.712 76.2575
94.8272 60.3237 89.575
134.764 131.983 7.63068
126.907 98.9977 39.1911
69.7458 1.66205 165.311
74.0508 1.67912 165.183
82.6456 2.815 163.512
94.9459 16.3054 145.887
97.2561 13.7768 149.076
-50.3644 794.388 852.479
44.7645 301.648 220.487
-182.056 -1257.86 1792.83
236.873 503.372 484.947
58.4479 -0.637169 168.231
62.0725 0.643608 166.49
65.3269 4.51146 161.423
82.606 31.0085 126.838
83.2442 26.791 132.259
107.352 145.545 21.7876
120.471 173.187 57.7952
108.4 87.6459 52.9236
126.312 98.5479 38.4056
59.5373 -13.2726 184.325
65.8329 -14.1286 185.274
77.8406 -3.08086 170.696
78.4393 -6.63705 175.277
47.608 -182.997 404.205
-20.7097 560.74 557.71
68.0577 61.3055 87.2965
70.3785 43.9214 109.767
60.272 5.17786 160.115
63.8966 7.96789 156.404
68.1497 13.0774 149.667
96.6735 59.5442 88.6568
115.71 70.8827 73.4665
114.723 57.3908 90.9982
64.419 -19.3589 191.776
67.3954 -18.9433 191.161
63.426 -448.859 750.529
56.1475 -383.027 665.061
34.744 -320.111 583.743
260.175 878.801 981.779
1618.4 6225.04 7971.7
148.252 181.124 71.2468
129.557 105 28.2642
-52.0533 -776.861 1182.68
-13.8315 -424.369 721.878
-87.3926 -691.683 1072.46
88.9668 92.7222 44.191
90.036 57.6384 90.0501
91.7548 59.4019 87.6999
97.7268 55.4112 92.7677
138.837 167.358 55.5021
131.309 129.618 6.11615
91.5498 95.9934 38.7321
103.108 62.119 82.979
158.819 286.829 214.56
179.238 331.984 274.541
105.695 98.7502 34.1738
148.727 162.932 51.551
113.711 351.2 300.349
130.718 221.311 129.072
156.745 276.54 202.754
168.551 279.38 206.812
86.8106 55.0093 91.7071
89.0185 57.2903 88.6306
109.62 94.92 38.2873
106.266 72.2648 68.3633
122.382 96.2774 36.161
-274.422 -696.163 1096.56
55.7959 -6.00968 173.081
88.0272 54.0969 92.4671
114.726 140.878 23.7832
-515.974 -1268.74 1866.16
1000.95 1557.48 1929.63
93.0709 93.011 39.8415
107.902 111.663 14.5977
125.483 141.008 24.9686
432.797 759.045 856.644
1061.75 1882.93 2370.84
91.1901 85.822 48.9363
124.88 146.201 32.6304
125.639 131.8 13.4056
224.238 266.988 196.635
94.283 116.411 7.33011
96.0864 114.808 9.43091
96.1341 99.6879 29.6897
104.265 67.0219 73.2484
158.126 152.429 42.6038
-277.34 -686.861 1094.6
83.9192 45.5142 102.208
85.4069 46.9598 100.227
129.045 227.125 143.534
166.732 306.467 251.279
2236.1 5746.28 7624.88
-281.436 -789.299 1234.84
475.846 716.999 811.769
-453.678 -1003.75 1529.7
109.603 84.7746 47.967
141.402 234.202 155.034
197.652 368.67 338.192
-1926.69 -4734.37 6612.32
-8995.17 -20720.1 28433.4
55.284 -5.90981 171.44
85.2539 43.739 103.391
90.8007 61.8767 78.2036
105.317 85.9032 45.1799
105.003 78.5214 55.2158
146.247 270.92 207.879
131.307 152.272 46.0798
-949.341 -2873.27 4103.9
-1633.17 -4656.01 6550.69
84.6301 82.5322 49.493
141.913 211.8 128.365
182.886 276.645 217.91
107.954 109.958 11.1474
108.278 107.3 14.769
145.942 279.793 222.501
188.774 372.243 350.1
156.382 192.336 103.157
74.1814 -6.49126 170.895
78.389 -6.0377 170.161
64.4736 -280.23 546.494
46.0881 -250.409 506.087
132.219 195.997 108.491
65.7708 24.1445 128.839
86.877 43.2027 102.097
103.096 59.2229 79.6594
106.354 40.7734 104.909
25.4315 86.5621 43.6483
25.4518 121.266 9.54988
37.7354 122.972 9.29356
58.5384 501.413 528.541
88.9201 168.899 71.4539
124.792 220.928 144.073
135.742 198.214 113.089
55.4717 2.37454 158.654
72.432 8.79002 149.348
86.2802 22.2067 130.472
95.1535 12.3098 143.879
71.4785 -14.3235 181.156
78.1286 -10.4334 175.604
58.9819 -409.234 727.454
108.285 118.189 7.05831
52.0085 0.705139 160.576
62.4404 -16.9505 184.771
62.9445 -16.9627 184.775
66.4138 -19.4692 188.155
69.1838 -16.9991 184.655
-381.932 4682.35 6328.2
93.2427 133.773 25.8014
140.555 267.396 212.878
127.384 183.364 95.6833
118.869 123.708 12.5082
119.21 85.115 41.1397
-61.6769 -203.397 447.221
61.5925 -14.3223 180.879
82.9444 2.76341 156.506
60.7363 -391.609 706.815
144.189 365.2 350.605
34.0429 -326.971 617.965
9.67556 -456.631 799.663
-57.3347 -745.865 1205.33
147.013 251.916 194.003
121.396 121.553 11.025
123.223 88.3615 35.333
89.3747 118.033 8.33759
90.947 84.7473 40.4078
121.769 126.745 19.4114
137.678 150.735 53.5349
149.494 176.468 90.4772
95.3568 121.734 12.7383
99.7457 76.4683 50.9655
128.458 203.342 129.27
90.4438 56.07 79.5205
92.045 64.5137 67.2779
108.245 174.067 88.7894
120.27 149.977 54.9634
93.7851 2.48328 154.933
159.349 534.829 604.172
84.3398 50.3589 86.6439
102.777 81.1095 42.3409
101.353 58.1033 75.1397
-290.39 -1673.38 2554.98
207.462 402.862 419.713
84.4945 69.8736 58.326
86.7827 73.7253 52.7619
93.6234 87.9368 32.277
117.764 120.329 14.6551
100.923 79.1903 44.2881
152.374 387.866 399.448
126.468 203.658 134.951
120.431 157.419 68.5711
115.45 112.688 8.71968
117.697 113.811 8.70801
162.435 286.678 255.576
87.0194 85.0784 35.3628
93.4057 85.1886 35.0238
117.762 257.99 214.467
147.46 291.263 263.155
172.051 355.278 355.907
155.294 227.555 171.765
-1725.31 -3474.17 5204.65
-58.052 -292.998 583.339
-142.913 -395.023 733.394
-58.166 -365.397 689.502
-62.1188 -327.002 634.083
-48.4796 -273.414 556.189
88.1133 100.159 11.6747
94.0663 100.349 11.2287
115.722 287.149 260.673
103.684 87.9083 28.6506
110.364 99.6134 11.4826
147.033 283.732 257.358
134.361 208.425 147.609
131.727 166.276 86.3077
110.113 58.9997 70.1359
-1219.19 -2853.08 4344.22
101.789 84.2149 33.1442
1316.67 1986.7 2772.99
237.908 193.075 129.334
40.4988 -520.755 918.034
119.662 182.04 110.877
115.395 128.388 32.3795
119.147 60.3196 66.945
120.607 41.0293 95.082
116.917 29.2801 112.351
144.287 56.3248 72.057
137.172 41.6504 93.698
71.9555 -314.677 617.137
43.2634 -765.739 1278.73
173.892 1084.43 1435.38
105.8 135.513 43.3326
93.9323 40.3972 96.3471
93.8544 34.7785 104.58
119.736 59.2493 67.9852
22.9021 -184.959 428.801
88.1851 266.927 236.702
92.4678 281.292 257.929
88.1226 74.7904 45.5617
98.6478 91.1306 21.2517
81.5989 18.0485 128.948
67.81 -285.914 576.984
90.6972 99.3236 10.4396
97.8048 114.352 13.5765
465.107 917.586 1207.61
153.362 119.99 23.4983
82.4758 10.9635 139.038
82.766 -1.44559 157.336
85.2162 0.572342 154.288
103 13.8171 134.23
103.182 9.26176 140.945
47.2449 -163.598 397.808
336.543 2179.59 3076.97
82.3349 115.744 16.6337
87.0388 92.4652 17.7136
94.9193 26.7956 114.764
73.8108 -1.71534 157.496
85.9512 7.30133 143.764
64.6934 -24.4352 191.389
-4.3003 281.707 262.073
19.6647 269.918 245.243
41.7377 158.854 80.6753
110.707 579.871 709.016
93.144 105.984 9.77667
262.151 451.618 522.698
56.599 8.41647 142.378
70.3532 32.8124 105.576
76.6129 45.1306 87.0135
58.1893 -16.7701 179.813
60.2357 44.7204 87.6559
84.2682 22.6511 119.96
96.0007 36.9704 98.1877
64.4116 24.8273 116.922
89.6563 149.716 71.6924
90.0915 66.3602 53.5508
102.591 117.988 24.8103
122.267 161.598 91.0301
54.5474 -0.257812 154.452
60.5935 12.6588 134.805
55.2689 73.1314 43.5266
81.5109 123.493 33.6946
91.6653 63.5671 56.5836
71.253 17.1709 126.982
91.975 34.3848 100.263
120.996 165.583 100.556
107.706 85.4525 21.6911
124.982 171.927 111.355
110.144 86.8397 18.8499
115.612 71.0858 42.7089
90.0822 -5.75966 160.419
133.455 129.152 48.9953
81.9926 -13.4436 171.868
122.857 232.986 209.755
150.323 307.296 327.944
80.9765 119.469 35.4451
102.97 184.497 137.231
101.075 68.8854 42.309
146.623 315.097 343.365
93.8613 12.2463 130.536
74.512 -14.2248 172.31
79.0959 -324.195 656.841
57.4626 -332.813 670.99
103.489 196.104 157.655
129.307 232.299 215.064
72.4959 18.0002 121.685
81.7641 4.70816 142.214
82.3415 -1.32848 151.65
84.5268 -3.73066 155.344
85.3205 -7.37453 161.026
89.1558 -4.32121 156.125
36.2585 -307.816 633.684
532.65 8139.87 12650
98.8801 156.295 96.7238
102.672 70.2071 38.3752
-536.678 -1018.39 1768.17
-1851.03 -3007.78 4933.88
-11047.6 -15341.5 24593.1
82.3178 12.0848 130.141
86.6092 9.60779 133.902
121.198 19.81 116.774
12.5404 -182.005 437.893
10.9096 -182.288 438.39
123.181 346.422 398.884
-28.5246 -278.835 592.183
-6.77957 -182.781 439.982
71.2765 35.3771 93.1885
79.8103 -333.441 676.182
81.5675 151.832 91.6188
85.4221 110.985 27.117
111.861 118.292 39.5098
136.982 72.3596 32.3686
127.892 49.3334 69.0843
214.065 142.589 81.1681
73.9295 -15.0047 172.468
83.0054 -10.5431 165.113
37.6337 -137.229 367.439
10.9397 -181.523 438.568
5.41127 -177.365 432.143
-2.04182 -187.773 448.894
94.2491 74.6094 29.2137
106.413 95.5007 12.2792
171.44 207.828 184.906
480.729 745.944 1049.73
76.8219 23.3952 110.952
83.4906 13.9547 125.761
115.714 44.5791 76.0109
135.622 46.272 72.6848
84.8485 190.621 156.566
94.7662 93.9426 12.1968
874.771 1818.52 2779.55
181.516 172.595 130.882
-9606.47 -13038.6 21263.6
50.9234 326.751 374.556
80.4415 145.345 85.6818
85.3037 107.671 25.4441
-357.814 -1310.34 2265.15
60.7819 76.3532 24.5345
71.2699 60.417 49.8612
90.2922 204.889 185.386
86.2505 81.7788 13.9143
87.6139 26.9339 102.369
95.1773 106.485 27.2223
52.3275 39.9991 81.58
63.6751 23.9975 107.261
65.7407 31.2185 95.1944
76.6076 33.8115 89.8513
-131.407 -732.77 1354.58
287.424 572.962 802.193
58.7777 -1.5732 147.794
58.488 18.0941 114.937
83.8423 61.2984 42.6245
102.415 151.535 107.871
54.9929 -3.8754 151.111
71.3589 28.9784 96.0511
92.1681 62.0848 40.426
89.0753 -1.29884 145.714
133.294 -353.533 730.26
88.2584 108.491 37.7922
110.058 148.969 106.005
102.868 80.5919 16.7747
105.82 18.3185 111.752
71.5448 -20.6398 177.856
172.981 2349.78 3796.68
15.5941 -264.328 587.838
52.8287 38.6976 78.7276
73.3932 75.2105 17.1597
87.7086 64.4178 34.421
87.5903 23.5033 103.06
90.9212 17.8321 112.463
62.6597 -29.2829 192.362
67.256 -27.4608 189.148
-41.9241 290.456 342.242
209.186 -1482.7 2632.96
-43.4152 2011.97 3238.88
25.9951 62.1805 39.3136
57.5962 121.382 61.4948
87.022 48.3587 60.5592
86.9121 35.0346 83.0131
98.4381 51.9365 54.1488
102.044 42.6901 69.361
76.0379 -1.75716 144.94
83.3583 6.89742 130.051
95.7263 13.8652 117.845
91.9415 -6.96156 153.075
89.5406 156.976 125.721
342.933 804.33 1234.42
-8.52509 121.497 63.0472
88.652 115.888 56.7994
83.5613 0.980362 139.244
214.597 128.469 83.4715
77.0135 -12.2756 161.699
78.4969 -14.6041 165.633
92.7989 -1.97575 143.526
141.395 35.7521 77.2767
162.36 52.3162 48.2032
170.343 51.4671 49.3822
42.2756 -123.651 353.86
38.3771 -141.767 385.292
21.2608 -171.751 437.436
3.54136 -160.124 418.059
71.8553 9.68818 123.55
24097.2 34061.7 59339.9
-94919.4 -132533 231628
75.8963 -1.75736 142.967
77.3801 -6.97556 151.912
158.122 -4038.61 7111.96
21.0389 -190.67 470.976
11.8631 -173.592 441.799
11.0735 -172.534 440
1.00759 -174.862 444.37
157.031 145.565 114.988
127.055 60.6332 32.9516
-68.3799 -340.292 734.829
-819.739 -1700.61 3126.63
-214.109 -533.009 1078.58
66.9112 48.5126 53.8016
166.212 356.576 489.971
138.67 143.784 117.283
91.6511 -179.697 454.317
76.2458 33.568 77.0647
410.749 660.738 1053.66
99.1373 -344.163 753.45
77.1209 -15.6459 163.044
32.6858 -191.323 482.695
20.5076 -191.465 483.39
71.8113 202.015 231.823
-39.7497 -465.802 983.469
132.77 74.5811 20.8433
77.6481 -19.1627 169.025
83.3562 -17.8734 166.477
48.8387 -216.103 528.276
36.6882 -265.326 618.281
49.4657 219.6 265.25
109.586 161.48 161.527
65.6068 4.56783 125.802
67.6898 -2.40654 138.452
76.7151 9.52298 116.357
108.137 30.3656 77.1862
66.841 -17.6191 166.124
73.9518 -14.3694 159.927
85.0516 -3.70552 140.039
61.9683 -30.2679 189.246
65.661 -32.1603 192.578
72.8767 -28.7103 185.992
106.536 -405.047 876.575
78.8854 -14.3804 159.206
77.7988 -16.0185 162.136
86.837 -11.7666 153.974
66.9824 -28.8137 186.007
69.6599 -28.8693 186.01
78.2989 -22.6119 174.153
78.6914 -24.8591 178.282
45.1287 -177.832 461.996
40.9818 8.7262 117.327
49.4395 16.7383 102.191
63.7847 64.9746 20.1706
74.1651 17.4132 100.027
77.9012 11.9677 109.962
82.1218 7.66354 117.768
75.3489 -7.87766 146.48
77.6492 -22.9462 174.348
6.35564 708.544 1184.63
50.5454 272.286 374.342
72.0602 54.0568 30.6996
82.1891 17.0385 99.3132
73.8386 -3.56139 137.861
74.6881 -9.30782 148.411
79.0668 -113.875 344.783
58.5688 -98.0234 317.181
57.246 90.6386 52.366
69.8158 40.6466 45.4103
82.036 42.3583 41.572
83.65 26.5478 72.5862
82.1042 1.76456 121.183
83.5748 2.99298 118.708
83.4977 -4.26741 133.001
75.4266 -17.5982 159.43
76.1077 -21.0992 166.303
51.2475 -760.6 1627.56
-898.159 -1515.74 3155.95
-1871 -2616.66 5368.13
211.876 106.316 90.7846
130.632 23.2726 76.1464
140.42 24.304 73.7236
76.3145 -24.8356 173.306
81.5877 -23.5771 170.607
114.83 -4.85691 132.23
44.6078 -122.912 369.024
37.1894 -113.373 350.385
33.3328 -158.49 440.329
23.8355 -136.7 397.404
64.9052 123.93 122.613
70.5652 82.6658 40.7301
77.4286 97.2942 70.109
89.1552 82.9325 41.9953
87.919 33.7749 55.8679
269.852 312.654 506.235
522.124 586.586 1061.27
306.386 263.778 410.424
534.701 517.106 923.519
105.016 16.3916 89.5571
107.457 4.69024 112.514
105.16 -2.72422 127.408
39.2046 -133.457 391.33
6.202 -186.912 499.58
280.545 559.62 1006.54
-287.598 -809.814 1759.51
-446.946 -954.162 2055.03
79.7346 19.7826 82.691
80.186 18.8176 84.609
81.1477 9.11377 104.038
84.7686 4.10657 113.938
86.7522 5.37696 111.311
93.8326 -1.32273 124.468
94.7153 -1.24752 124.282
119.457 14.0117 92.6828
83.0567 -16.3271 154.866
86.4467 -17.2665 156.617
99.4396 -15.2435 152.033
100.259 -14.9166 151.343
-1833.19 43976.9 88449.5
10.8713 -284.683 698.4
64.624 55.8631 25.7719
73.0952 -2.57766 127.063
95.6856 6.58002 107.666
97.5762 -9.44331 139.935
75.1518 -28.7827 179.779
80.9239 -27.6544 176.993
71.6448 -160.899 450.297
66.2881 -158.876 449.33
69.0623 -110.523 349.979
65.9926 51.8144 37.6296
77.5542 8.06088 96.8068
81.0057 1.68288 110.331
66.5745 -21.5371 160.571
70.927 -22.1485 161.702
77.1068 -21.1472 159.295
86.1101 -18.259 152.722
61.4724 -38.5199 197.156
66.6482 -37.0272 193.731
-43.7648 188.274 286.952
-5.00097 148.486 202.89
20.0314 130.193 164.544
49.5748 175.584 263.533
87.9529 229.265 380.745
96.8187 88.6551 78.3084
87.7551 41.0071 33.1667
65.6427 -17.3774 151.075
69.6629 -18.9527 154.308
74.1838 -19.7214 155.777
68.818 -28.4171 174.678
77.7488 -24.9482 166.799
78.3964 -27.5182 172.329
66.8176 -37.2161 193.711
69.0533 -37.4333 194.087
69.3729 -30.8459 179.519
74.8206 -116.279 365.371
45.2572 -382.917 947.854
25.7164 27.9535 52.7885
35.4658 24.2082 60.5481
72.7243 13.8547 81.5598
83.3637 14.0911 80.5902
59.9553 -23.9464 164.5
84.9726 -10.6627 134.395
76.6016 -22.0751 159.448
84.0243 -16.619 147.027
82.4974 -21.8766 158.505
83.0005 -24.806 164.44
139.645 7.37775 90.8313
126.214 -1.27104 110.333
132.637 -1.81298 111.251
37.3986 -108.928 352.742
21.7552 -141.262 425.403
-112.018 -363.666 926.297
-112.96 -360.909 920.205
-63.7913 -214.515 592.381
170.838 104.027 127.117
188.348 101.225 121.649
429.721 343.057 671.058
133.978 33.56 31.1758
38.3122 -119.714 380.376
54.6937 -97.0218 330.467
44.0532 -105.888 352.087
44.6854 -143.645 443.381
435.754 720.769 1637.67
308.218 283.583 588.384
98.4725 11.9405 69.3306
104.45 7.62199 79.3761
98.5841 -10.8543 123.803
114.722 -10.2485 121.612
84.8959 -30.1134 170.351
51.6518 -175.03 519.382
18.5721 -175.988 523.21
-35.1364 -322.585 878.26
-79.8159 -350.348 947.033
186.478 234.013 470.187
196.783 191.374 368.091
76.8738 -2.54304 103.791
82.6498 -17.8097 140.298
98.1038 -11.8128 125.131
85.7277 -23.9682 154.858
86.1889 -24.0638 155.067
89.5708 -24.8585 156.826
89.8536 -25.1287 157.464
73.4027 -36.6667 185.977
73.5215 -38.1687 189.515
73.6535 -196.436 573.168
-31.8983 264.304 540.236
62.2597 -31.1082 172.571
65.6258 -31.9271 174.403
78.4775 -31.6013 172.822
73.383 -36.5858 185.123
71.2744 -39.4547 192.145
8.7056 46.5797 47.4338
23.2641 37.742 43.0395
38.0618 28.4466 38.8238
50.6159 -5.70873 109.707
-64.654 -237.587 693.012
-123.409 -281.134 804.826
-185.809 -316.011 895.143
228.959 145.705 280.813
231.974 120.653 218.229
140.78 37.4476 33.8507
151.306 34.4376 32.4268
235 82.5462 123.522
115.653 -5.47979 102.992
137.64 -2.85623 95.2976
20.7822 -20.2353 144.413
-55.6258 -419.365 1154.71
-24.5435 -276.063 791.794
-140.656 -372.853 1041.72
386.562 303.666 690.789
1772.51 1699.95 4281.58
100.906 -10.2997 115.112
106.129 -12.1 119.394
120.08 -8.23111 108.918
111.854 -20.2234 139.103
518.211 453.721 1183.13
97.4972 0.635534 74.8762
108.346 -16.7695 121.859
109.316 -16.467 120.981
149.005 0.039115 73.7955
58.6729 -194 610.246
36.8401 -214.345 667.224
-81.0151 -1010.01 2860.32
-33.3973 -291.633 883.897
-303.298 -819.105 2347.54
48.1721 -18.3592 128.525
86.1297 33.0369 52.0552
130.58 67.3477 111.685
109.446 10.0965 46.9698
73.7943 -26.0565 148.197
78.327 -30.5025 160.206
91.155 -23.0329 138.94
90.3776 -27.166 150.37
85.4052 -32.4351 165.03
81.7111 -36.0917 175.209
73.6073 -40.0273 186.426
78.5635 -39.2206 183.829
86.9902 -207.355 650.479
20.5798 57.728 83.1263
65.8689 -27.8529 152.607
74.0043 -26.5397 148.512
63.7748 -36.9733 177.999
61.8096 -38.586 182.502
49.4822 -14.1546 114.229
60.0845 -11.7021 106.765
65.8922 -13.4941 111.478
54.7963 -28.5794 154.155
59.2709 -29.6261 156.856
63.155 -30.5112 159.135
68.4054 -33.986 168.629
209.981 58.8651 107.113
216.599 52.0791 88.0383
137.396 -1.78164 70.5929
142.472 -4.36963 77.7325
68.1418 -41.2736 187.841
113.396 -22.0114 129.854
123.286 -17.8825 117.414
48.4378 -110.439 388.474
41.1325 -111.253 391.245
31.2172 -104.476 372.245
16.6817 -178.697 587.971
-9.17745 -192.587 629.645
-79.8303 -235.372 757.492
669.921 489.829 1383.6
120.867 8.90412 38.9509
163.283 39.835 53.1219
137.921 -2.21425 70.1724
219.003 64.9326 130.113
56.3087 -118.622 427.49
455.064 390.796 1222.32
124.691 -16.7845 99.8561
84.4212 -39.179 173.736
38.8529 -197.779 685.414
8.55433 -223.627 770.243
568.235 654.536 2083.03
137.731 18.9817 59.3249
92.4304 -24.9644 127.194
98.1302 -31.9695 149.364
158.14 49.6734 118.014
87.8708 -23.5942 122.466
96.2679 -27.1413 133.407
87.2308 -178.01 626.369
37.6798 -200.1 701.775
32.7045 -169.191 600.897
5.95598 -442.503 1499.11
-16.3846 -363.157 1240.38
188.682 -690.588 2311.21
58.3733 -404.677 1379.05
26.6831 61.2686 156.934
77.052 -11.0344 78.2123
705.745 -1174.94 4134.28
67.4801 2.83992 79.3792
56.5404 -45.8049 182.135
68.5109 -26.6883 86.4524
71.5725 -51.46 199.458
13.1027 87.3687 116.216
28.6324 -0.270889 138.566
24.0542 16.2981 109.326
27.3523 -107.642 331.659
24.1235 -116.549 348.443
22.3792 -110.97 338.285
17.8357 -121.393 358.003
6.77696 -158.429 427.368
-0.182838 -151.236 414.446
-14.9374 -165.509 441.61
-0.291718 -122.608 361.547
-21.7045 -159.258 430.973
-19.2066 -145.616 405.553
-25.694 -150.366 414.704
-34.6738 -156.758 427.033
29.6419 -143.429 399.454
-8.71541 -175.354 460.914
0.848251 -136.398 387.921
-291.447 -818.375 1676.83
-106.875 -351.219 795.062
-37.7107 -188.647 487.936
-8.77817 -127.552 372.359
149.564 135.521 184.505
-100.338 -257.015 620.047
62.5878 -111.136 339.11
-78.1945 -261.804 632.321
46.4101 -216.424 540.671
33.5133 -136.333 389.1
93.6626 133.462 179.381
-146.644 -518.233 1127.78
-75.2691 -300.919 709.408
0.0731964 -120.209 360.623
89.3314 51.4142 104.256
159.199 162.882 211.557
305.451 376.216 605.563
43.2939 111.669 158.236
67.1064 148.321 193.734
218.696 611.465 1055.75
247.585 690.709 1214.04
59.8767 29.719 83.9844
93.73 104.404 156.382
56.9959 2.87206 120.719
53.5292 -10.5912 146.692
57.0005 -16.8604 158.685
74.7334 6.61343 112.043
19.1194 -95.0712 312.986
44.4525 -7.34911 140.414
60.4584 31.0578 86.7286
44.9035 -18.848 162.581
51.9592 -7.39905 139.059
44.5943 -25.2651 174.478
49.7892 -17.3924 158.605
45.5103 -26.9911 177.389
48.5645 -23.8915 171.04
-2.37543 -117.936 362.344
-11.4016 -129.261 389.367
-9.48239 -120.818 371.825
-40.769 -161.603 459.358
31.7458 -102.403 331.915
29.2738 -99.8279 326.713
25.1351 -102.244 331.994
21.096 -118.875 367.232
14.0145 -124.199 379.232
7.45652 -115.112 360.616
-10.638 -126.838 386.295
-364.476 -668.626 1547.16
18.936 -131.409 394.625
14.7887 -134.536 401.459
3.66675 -165.292 467.569
3.32979 -134.988 403.664
-44.3556 -162.563 466.197
29.42 -103.637 336.648
25.0162 -159.529 456.536
-2.52637 -138.475 413.346
328.472 528.256 1035.24
520.076 676.781 1365.58
29.8542 -118.387 368.914
26.8031 -120.827 374.339
-0.586945 -393.857 963.76
1.55842 -256.098 667.334
10.0306 -158.098 456.014
10.1592 -155.244 450.572
110.983 274.477 485.92
-28.583 -250.145 659.323
-46.4965 -275.797 716.039
70.1075 54.8494 130.958
-3703.73 -9144.53 20230.4
975.11 2015.22 4327.96
147.229 194.007 317.957
63.4801 6.09703 96.8142
87.9834 44.6563 122.256
90.1358 46.346 125.202
58.5368 -12.2372 136.476
74.5029 12.4513 85.5116
36.2486 106.453 193.533
45.8773 -3.42715 116.872
52.8331 -27.4559 169.508
-15.267 317.093 594.739
46.2427 -26.5261 167.242
