11.3147 58.7991 116.84
433.612 -157.54 824.462
222.954 5.24553 318.214
134.729 19.5367 159.563
-1488.53 2227.14 4703.89
-1355.31 2076.7 4334.94
31.0805 26.6361 119.73
127.169 21.0717 147.825
-329.887 385.697 975.583
1309.07 -1764.09 3895.38
139.105 147.55 165.228
434.34 -119.712 806.299
-2677.57 2116.93 6661.9
214.463 39.3584 280.523
145.96 30.9614 174.195
137.209 149.158 169.594
228.629 34.7989 311.076
-45.69 231.024 351.779
292.697 -122.824 580.254
442.103 -445.673 1161.03
-330.885 388.789 1000.09
205.027 -35.658 345.195
-115.748 293.2 538.143
-121.082 310.565 565.083
440.08 -436.371 1160.19
212.262 74.5347 249.722
200.269 112.584 191.158
46.0854 25.8492 140.586
229.679 -19.8919 378.935
-60.697 249.438 402.7
215.892 65.9928 267.172
1146.06 -393.453 2368.81
7026.9 -8254.34 20795
280.287 -66.3725 520.686
256.544 -51.6428 463.795
-5159.04 6486.75 15877.3
-2318.91 3819.67 8126.66
2323.56 -1075.31 5206.25
421.8 -139.348 860.202
204.922 26.0726 300.177
3275.02 -1594.12 7495.55
490.729 -207.258 1060.97
426.378 -309.734 1055.03
152.055 -1.80847 238.387
16.388 100.665 162.663
343.308 -214.381 813.987
258.868 -129.27 570.753
1903.37 -1146.3 4669.86
10.5043 322.57 360.407
217.331 -39.7621 409.909
1651.93 -944.298 4029.3
-314.662 423.24 1069.58
42.2611 127.873 183.132
551.903 -609.88 1656.13
178.627 104.164 225.902
767.619 -254.467 1688.82
290.665 -76.0276 603.473
504.195 -255.879 1209.57
-43.1108 201.627 329.578
257.254 -49.8852 518.921
726.559 -238.72 1625.03
-111.99 338.798 614.776
205.717 80.6452 280.756
334.074 -243.821 893.018
-864.258 870.79 2666.96
-293.905 166.325 775.835
479.993 -174.031 1106.47
-0.379559 216.146 265.614
116.45 99.7668 228.392
-769.389 1040.41 2705.08
535.232 -432.489 1518.08
676.381 -227.655 1562.2
623.33 -209.363 1466.01
135.528 111.278 249.71
917.687 -419.467 2309.21
346.198 -174.868 883.211
291.201 -109.678 706.086
268.168 -75.0709 625.067
239.274 -44.7567 532.411
275.471 -64.7308 638.344
243.517 -32.9829 536.811
243.7 -26.4076 531.264
-350.121 384.317 1198.19
204.15 41.2021 387.03
124.315 272.51 347.397
-259.845 163.772 779.476
-222.017 210.9 758.687
73.4731 280.494 332.721
244.333 -27.6335 149.023
168.248 9.35921 29.9544
148.375 26.1631 17.0515
215.079 48.5921 49.0435
-25.1517 209.77 393.299
-2457.82 1915.5 4959.45
236.419 -0.119686 117.178
239.167 -47.0174 160.571
31.5223 162.744 284.512
-573.131 711.835 1533.64
5.47311 184.979 340.558
312.872 -121.299 321.742
402.715 -119.638 438.125
93.7567 143.32 191.786
431.444 -134.76 490.145
104.319 134.714 172.121
203.161 34.2176 45.1319
277.78 -64.1929 229.004
256.372 -49.5522 187.98
603.149 -269.033 840.729
337.594 -177.078 408.971
188.837 59.4783 3.09221
263.772 -58.2669 207.228
-73862.3 46168.1 140076
-482.094 546.42 1328.54
257.167 -49.2587 190.971
191431 -117482 361580
70.0883 96.1963 189.525
-417.323 505.399 1220.79
879.976 -555.916 1494.93
-451.706 526.013 1290.25
582.115 -404.262 955.355
247.293 -28.7168 161.131
46.6422 169.481 293.455
174.792 37.8631 1.70509
283.06 -102.384 277.87
582.884 -408.743 970.796
24.1429 198.949 355.304
151.707 100.214 88.7924
117.2 143.74 178.154
159.357 90.7261 70.585
227.869 8.90799 100.195
204.474 -28.2787 101.938
277.049 -79.6063 252.029
956.74 -412.59 1514.35
586.558 -289.474 882.039
114.563 154.124 193.411
183.526 90.1874 36.9348
576.492 -275.649 859.517
207.261 -20.1597 99.1941
216.572 28.0216 67.0626
101.406 55.7006 122.269
-593.768 523.012 1554.26
1105.39 -637.348 1971.28
-2589.51 2615.46 6417.62
-46.1174 235.553 511.416
-87.5086 261.359 597.871
272.171 -62.4799 233.09
683.794 -582.863 1332.57
94.0145 100.218 182.581
379.876 -19.1166 347.951
147.089 83.6293 91.8576
264.422 -107.064 267.738
142.071 151.323 168.958
157.976 117.376 112.661
716.804 -315.915 1146.48
267.171 -60.1127 225.947
321.118 -159.201 406.679
-252.738 346.562 963.496
418.63 -97.5883 492.429
259.835 -49.2174 204.535
-394.54 450.01 1293.81
-264.202 368.409 1013.85
544.452 -277.46 873.421
78.8481 140.995 265.251
829.221 -506.198 1547.33
10.7243 219.34 451.546
140.711 134.707 166.804
63.8956 153.155 304.83
187.236 25.3552 17.9684
508.952 -323.499 879.24
24.4548 201.735 421.523
158.881 96.393 102.485
111.338 174.784 258.519
157.69 99.2119 109.861
352.788 -112.836 421.498
259.406 -135.4 299.769
-1353.16 980.412 3474.11
539.698 -240.33 861.043
-66.9446 238.739 629.411
-89.853 264.644 697.249
-115.476 283.301 771.147
-332.758 501.772 1367.6
-624.699 539.691 1890.33
-72.4442 252.226 672.241
125.269 117.409 200.519
739.588 -686.734 1720.36
-375.221 382.206 1327.52
-460.949 453.806 1573.11
55.6137 204.896 424.114
-730.933 668.92 2313.92
1545.57 -1038.83 3576.43
1080.12 -682.785 2382.1
296.322 -95.9095 329.814
6136.06 -6516.83 18333.5
-211.021 339.441 1140.85
-94.5724 266.416 868.017
2191.2 -2200 6829.46
287.294 72.0148 81.5938
294.803 64.2346 99.99
209.246 110.373 202.271
-180.516 330.781 321.067
-58.8243 250.501 184.438
-22.7957 222.31 141.487
224.99 -18.1794 175.204
-62703 68295.7 84101.9
-100.882 273.024 233.887
-81.253 262.72 213.186
-29.8618 237.24 159.118
68.489 142.457 88.5542
216.573 -6.8498 162.851
-317.186 395.62 479.302
-161.891 306.756 306.438
-173.005 325.552 325.508
-59.4653 250.616 194.603
-679.794 867.953 1019.6
-317.066 371.506 474.816
73.3037 148.094 82.9343
429.261 -196.829 438.114
247.439 -40.5387 206.378
-101.511 271.311 245.955
-68.2601 248.64 206.225
-985.013 1203.35 1466.7
2.90959 210.668 127.124
419.521 -165.582 418.311
738.561 -596.45 906.802
24.0587 123.986 86.3097
-196.074 300.865 346.066
24.5842 217.049 112.688
135.531 102.328 71.4821
-826.017 872.866 1181.85
-61.9148 226.468 194.356
-395.863 368.531 560.054
-54.4517 245.501 198.946
-3.63417 203.203 133.251
154.889 19.0808 97.314
22.9626 204.946 111.514
442.47 -189.623 456.107
351.234 -168.094 365.168
-102.243 270.836 258.94
-84.8948 263.337 240.372
134.25 116.32 65.9793
371.375 -122.031 361.586
-493.614 726.685 842.407
-705.136 601.217 970.047
5.51341 201.96 130.081
-100382 114241 148428
21.1425 222.715 127.532
-361.912 411.473 569.729
2084.6 -1464.29 2595.63
351.965 -173.465 373.437
851.966 -833.608 1163.76
-846.386 554.38 1083.89
-167.633 315.885 347.556
544.046 -230.943 578.703
69.8188 221.046 84.754
-851.54 644.479 1143.95
-20.2527 218.418 166.231
334.863 -136.313 341.547
-455.944 443.806 682.932
44.615 182.274 89.1182
737.083 -398.221 847.666
280.101 -80.1213 263.254
43.3353 214.805 108.094
-200.586 309.29 382.225
-266.769 373.195 476.627
415.359 -133.251 416.413
514.744 -404.836 651.691
99.6178 170.129 57.1208
-85.4704 261.673 253.601
222.818 -34.4384 187.722
-48.2836 256.614 217.866
-622.317 450.434 854.426
-686.113 557.773 970.902
-91.4829 264.629 262.882
60.9527 151.426 61.0621
272.759 -75.7043 256.647
100.459 50.0013 64.363
-1201.14 1667.39 2051.28
48.6143 219.21 110.555
84.8914 178.405 55.1573
-162.796 298.432 352.437
-164.53 309.752 360.188
145.459 93.5918 53.6309
283.44 -68.1199 264.279
142.518 6.43587 91.5807
90.3918 202.966 63.5851
-33.9377 224.05 193.193
5.92558 192.727 138.556
184.891 57.1992 103.956
63.9478 63.9989 62.8895
110.642 198.283 46.0033
-0.633926 225.906 163.867
-783.287 658.33 1143.32
-10.0655 206.33 162.678
207.091 3.04387 154.606
288.555 -75.966 275.196
185.291 -26.1066 149.688
-298.369 380.839 535.4
-225.736 401.427 477.567
26.4949 231.27 143.079
57.7872 199.63 95.7258
-16245.3 7627.18 19787.5
621.804 -230.201 680.75
241.3 -28.5779 205.454
-621.49 423.461 873.335
-126.561 288.842 323.557
691.912 -298.304 789.358
357.063 -210.726 418.832
101.283 30.172 57.4268
-191.726 292.4 390.096
116.161 181.483 41.1823
-105.601 273.461 297.348
5.10318 210.293 155.149
470.503 -132.58 486.35
43.5975 164.092 92.6309
197.497 46.861 121.866
411.076 -120.389 422.363
70.341 62.8962 55.7354
-306.436 352.168 537.895
-150.861 299.137 357.319
96.5755 134.042 45.9627
230.89 -1.63345 181.91
-88.8811 266.107 279.46
55.0639 189.076 96.1015
194.211 68.624 107.133
465.766 -141.869 490.231
207.446 -33.3815 177.539
-241.344 445.038 529.87
-106.135 271.316 300.844
-5.11768 221.764 174.165
539.4 -176.466 583.652
175.025 60.7161 92.7811
225.97 -3.43452 179.046
102.361 189.115 50.9131
-14989.9 6388.51 18373.4
-6.10133 210.433 169.801
343.784 -97.1847 348.663
209.287 -30.3023 178.491
150.238 21.8942 90.7224
9.9754 144.45 116.943
-147.567 281.874 350.143
-136.552 293.773 346.136
-99.6149 270.348 296.44
26729 -30508.9 43680.6
54.36 190.972 99.4673
94.4559 168.358 47.0587
181.242 64.2045 98.0239
305.511 -126.637 329.674
297.729 -121.903 319.426
102.85 34.2258 50.422
-123.358 268.058 320.268
12.258 229.776 164.236
-594.149 449.959 891.87
-321.618 414.761 601.952
-328.268 446.076 626.606
-734.554 1123.75 1419.7
21.8795 237.435 159.593
151.852 110.345 42.6201
233.81 -14.7534 196.113
269.639 -72.2754 264.853
396.861 -302.235 523.791
1258.97 -363.486 1417.42
-25.3519 234.481 205.26
-579.602 926.982 1157.38
40.9703 217.998 129.572
492.116 -141.837 528.586
806.473 -420.284 1003.73
-7861.81 6776.97 11818.5
187.184 27.6169 126.219
696.7 -609.479 1004.37
-8017.24 3115.66 9872.75
-1023.68 821.608 1546.46
201.788 49.1862 128.624
271.883 -79.4947 273.729
-182.606 309.431 408.452
81.0699 164.365 59.3438
480.856 -139.907 519.715
-299.112 414.72 588.11
139.319 96.4262 38.4421
159.19 73.8126 71.6397
431.892 -307.462 568.82
138.991 195.439 25.0953
-1280.6 646.386 1713.75
-143.381 290.37 359.973
-69.6887 238.298 255.19
-738.12 1090.03 1428.77
51.6711 76.3431 44.7825
-1002.27 814.827 1537.21
-426.893 500.217 770.933
132.765 88.3964 36.8316
304.021 -108.201 325.649
442.279 -324.663 592.884
-597.589 482.791 935.63
-1571.39 1137.45 2308.64
4678.37 -3041.28 6489.7
-29800.9 22537 43544
-118.425 275.466 328.014
-0.12677 228.146 180.069
164.58 81.5381 73.7465
214.684 42.7561 147.51
523.069 -192.581 600.055
416.499 -140.035 460.692
502.102 -216.145 592.763
101.918 61.1005 39.8517
-1.25174 143.392 131.585
-182.14 295.099 405.397
-247.612 351.086 505.228
255.493 -52.2362 245.91
248.161 -53.028 238.906
223.178 -33.2411 201.693
50.4865 116.309 63.1545
45.9889 191.919 112.49
108.137 121.696 31.5339
175.061 68.5771 92.633
216.94 16.2587 166.52
124.653 175.496 23.8337
147.251 163.518 22.9641
-269.982 386.231 552.067
-323 440.129 638.507
-251.462 396.659 539.369
310.936 -110.914 339.197
-1.29955 242.578 191.288
-688.843 520.229 1063.54
-7984.04 5536.03 11552.9
-6945.55 5011.22 10173.2
-424.919 498.815 780.089
192.394 59.18 116.629
212.895 38.3981 150.119
202.397 -41.8692 187.417
187.499 -32.0021 166.189
41.5836 99.2078 62.5063
-116.157 273.869 329.499
-110.445 273.678 323.51
-94.4477 267.258 303.196
-1.78464 216.174 177.167
203.566 53.7822 131.73
799.548 -433.244 1038.9
-810.828 846.659 1391.15
-31.4937 215.209 207.87
-2598.4 2886.73 4462.1
70.9796 59.2232 38.442
-6.90765 139.507 137.514
-190.093 303.274 425.524
-28.0347 231.01 214.456
296.173 -92.6734 316.16
47.8854 196.743 115.05
141.191 108.537 34.8747
202.517 57.9918 128.913
2185.51 -1394.81 3064.05
2131.08 -1391.04 3005.4
109.148 67.5547 32.7624
12.7419 159.968 129.733
-152.588 337.592 408.753
175.649 135.538 54.328
925.787 -579.251 1268.27
-146.973 282.2 370.488
-106.494 272.134 322.245
-33.8611 244.331 229.746
133.784 91.1862 37.9848
347.888 -174.959 422.92
660.848 -616.041 1017.32
198.865 86.4185 109.186
692.846 -229.644 817.514
238.63 -46.1194 231.451
99.0854 58.2412 32.6038
8.20021 147.104 127.086
-142.58 283.653 367.959
71.2761 184.155 83.613
170.498 87.518 79.2143
2779.12 -1797.07 3964.16
-157.814 312.742 402.736
-98.108 269.615 313.815
-313.932 481.439 669.552
-7591.53 9141.3 13595.6
92.7875 206.837 75.239
-198.286 302.524 440.099
68.6482 186.814 88.8096
183.02 50.8859 114.842
216.048 15.6813 171.159
296.081 -63.951 304.2
171.459 -13.736 142.293
-28.8453 175.833 185.056
-190.223 327.852 448.544
-220.928 360.233 500.844
108.841 103.574 24.0866
55.1284 56.4918 34.0048
-624.084 446.232 981.069
-507.727 449.514 860.299
-107.154 273.197 328.352
176.734 97.2123 80.2424
449.665 -107.45 495.373
379.281 -89.7433 409.999
109.096 111.537 21.8695
169.721 45.3304 104.71
615.616 -471.651 896.741
17.0865 236.909 175.27
190.593 76.0695 108.299
285.557 -83.6689 308.119
245.873 -52.214 246.451
191.908 -12.6256 164.479
-155.17 287.612 391.288
-197.774 326.732 461.006
23.2264 182.372 135.928
81.0258 131.515 42.7277
-19.4338 246.914 221.44
240.814 -33.2126 230.766
360.731 -185.197 453.455
-7447.78 9956.33 14200.3
2108.46 -702.666 2645.57
-2016.14 1353.45 3048.12
-1376.13 1230.3 2287.49
-1406.77 1288.48 2356.7
228.116 13.3404 188.725
261.639 -58.7732 269.748
176.651 10.6519 135.249
80.5204 90.3822 23.4662
1018.92 -878.88 1594.87
13.9776 237.386 180.975
24.1972 233.663 167.689
238.329 -27.9771 226.242
286.989 -90.928 317.959
221.123 -42.5909 216.934
53.7785 72.2803 34.9453
36.4886 91.6494 65.6978
-204.544 311.193 462.797
9.66916 207.984 167.58
84.2178 163.463 59.4111
337.841 -172.685 425.161
144.772 199.054 16.3899
175.77 162.017 40.3583
3365.72 -1120.11 4287.98
45.8404 166.666 102.947
150.718 64.1473 74.9415
235.406 -26.0322 223.267
242.926 -49.1203 245.952
1722.43 -677.619 2244.38
647.351 -295.33 840.073
3490.01 -2608.39 5380.47
323.518 -107.66 371.005
118.541 63.6675 40.7262
5909.09 -5724.82 9973.56
869.224 -714.631 1346.12
-256.896 517.386 653.092
39.9638 198.155 129.316
83.5785 173.664 66.5485
92.6306 192.111 68.1148
157.956 100.097 61.2666
1089.63 -588.509 1511.31
2451.3 -1631.32 3654.3
106.232 112.354 14.0177
444.287 -266.393 605.464
12398.1 -15156.8 23078.1
46.9725 212.033 130.663
192.212 63.3857 122.146
234.785 10.9754 201.896
315.8 -69.1497 341.232
440.735 -177.1 546.305
314.773 -93.4677 355.679
844.867 -686.023 1311.9
695.429 -544.09 1058.41
2861.87 -3138.45 5076.9
58.989 186.075 101.315
541.224 -199.452 672.024
1084.79 -658.222 1559.97
72.6276 134.471 53.9122
164.811 44.8589 104.257
230.558 -23.3384 219.817
299.582 -101.258 345.197
325.539 -153.398 407.012
3691.32 -5258.21 7359.01
116.214 193.566 43.8665
169.19 130.758 54.4301
417.726 -92.2021 469.778
129.995 -18.0601 107.005
-33.4263 246.872 242.455
1334.02 -684.556 1862.66
-35.563 224.149 231.792
-786.483 987.205 1551.64
1006.01 -1381.43 1953.24
160.651 147.432 34.1748
198.418 74.566 123.01
219.636 43.2166 166.702
228.275 -47.1686 234.755
1165.38 -977.151 1872.41
949.184 -797.302 1517.14
437.761 -282.69 618.796
474.32 -119.773 554.968
1657.59 -1016.69 2448.38
696.775 -372.916 966.019
61.013 138.728 70.6813
159.84 53.7638 94.0097
323.462 -135.174 398.136
290.59 -118.922 351.184
303.064 -159.232 391.253
304.082 -165.375 396.383
-70.8815 259.62 296.255
-44.932 250.179 261.293
-26.3392 235.964 231.371
34.6204 177.401 125.45
-495.234 547.413 957.214
40.8886 161.944 109.028
646.385 -543.306 1025.74
654.24 -558.292 1044.29
-9452.58 3529.18 12901.3
-8.79819 206.011 193.681
53.9607 146.964 84.9368
159.053 59.496 89.6607
174.144 43.2824 117.133
288.356 -94.848 335.193
352.026 -186.971 466.693
372.129 -240.454 524.248
183.43 135.098 67.7174
-16.4295 220.615 212.422
43.2441 173.561 114.701
283.848 -124.517 350.764
125.842 2.04084 90.4205
77.7296 26.0431 20.7111
-364.795 394.647 718.701
-247.397 436.338 614.682
-424.798 735.182 1011.24
62.9016 220.912 124.018
128.764 130.432 9.85464
221.017 8.08955 194.46
248.759 -20.8903 244.8
-217.635 375.084 542.446
-2824.2 3047.45 5246.69
435.108 -282.181 627.665
1199.82 -1874.29 2544.12
-89.5543 266.316 327.246
-74.8443 259.28 305.973
-263.555 457.808 650.968
2527.69 -2733.69 4621.71
4009.31 -953.528 5122.66
331.203 -73.7052 374.794
97.0992 100.786 6.55203
256.966 -52.1875 276.454
33.1859 215.193 154.997
88.4213 165.72 59.3374
230.332 -6.3167 216.48
223.197 -36.8525 228.734
212.552 -30.3738 212.315
301.919 -136.067 384.531
131.773 200.061 33.3025
169.263 155.053 39.4941
187.891 113.852 88.3048
295.263 -67.0069 331.728
275.514 -59.861 304.482
210.516 -41.2076 217.85
-1297.06 764.085 2045.11
189.18 -11.9365 174.549
171.643 0.909096 145.868
681.709 -610.075 1140.13
364.005 -257.665 539.829
486.172 -502.681 846.194
427.706 -441.128 737.793
156.491 191.605 17.9004
56.2167 184.842 109.932
204.495 100.111 117.476
304.971 -182.69 424.292
3850.23 -4431.79 7380.04
62.0967 209.328 120.152
82.0126 -12.9576 53.4997
67.7167 3.82408 25.6049
-470.041 402.635 866.125
233.346 -14.3206 229.528
157.016 -17.3779 143.346
53.2451 92.0508 51.3045
-8300.57 10183.6 16597.5
125.646 -3.45641 97.293
-49.4303 254.061 281.491
81.3393 179.456 78.8318
139.68 104.373 40.2429
458.133 -367.473 732.723
302.844 -85.2499 360.426
777.704 -846.334 1435.82
127.751 187.366 30.1091
183.864 164.119 51.21
209.87 118.7 112.761
-1263.56 1021.63 2228.18
184.729 37.0426 139.481
137.532 0.201698 109.603
102.059 19.4206 54.9029
105.227 141.321 25.2339
257.13 -50.9906 285.528
265.868 -65.9895 306.131
74.0077 49.1919 1.58834
-667.764 549.246 1215.18
-375.488 408.818 774.875
-229.988 378.763 583.37
810.91 -1089.69 1657.46
148.47 190.203 25.8237
212.335 114.696 119.487
389.312 -47.4641 440.356
-501.43 526.418 1008.35
-1716.54 2335.12 3702.12
52.6174 201.929 128.852
259.778 -56.3189 296.03
28.3399 78.0467 71.5354
6178.1 -11090.9 15015.9
146.766 190.922 28.4064
438.612 -101.81 540.894
184.7 146.251 66.302
702.473 -200.596 925.92
179.465 -9.76085 169.61
71.4805 171.835 86.3688
120.844 117.751 18.2184
311.621 -169.89 440.736
177.697 -29.7729 182.198
95.2997 184.548 67.191
185.412 141.931 70.614
226.402 36.6129 194.142
92.1832 -0.31432 59.5934
-485.873 440.832 945.751
-571.252 960.393 1417.13
217.565 86.6402 149.382
226.435 77.3852 166.607
162.862 11.0311 137.244
-314.816 640.152 885.208
82.6752 198.143 92.0815
29.6675 173.955 139.381
266.572 -66.8043 318.365
559.777 -874.212 1249.2
165.147 268.193 47.7749
-10099.3 4079.95 15189.7
-758.503 749.627 1505.88
3977.22 -3096.81 6980.13
414.858 -317.43 678.504
443.854 -657.164 957.324
1459.68 -555.239 2119.11
268.476 -67.9203 323.512
55.225 303.582 202.317
238.797 34.7395 214.463
435.732 -144.393 583.266
336.877 -315.763 586.779
-76.3748 260.696 333.417
-57.5245 253.032 304.859
222.19 103.517 144.853
506.637 -182.201 699.693
207.967 35.3429 176.665
364.046 -268.266 587.921
403.76 -358.313 701.855
-1557.51 836.53 2571.05
1513.16 -815.721 2397.53
217.669 52.3944 176.696
474.411 -164.758 650.26
11.8333 92.5104 105.581
172.338 128.395 65.942
4296.78 -2073.55 6758.72
-1040.52 1407.71 2365.66
363.16 -311.777 623.018
400.832 -418.977 747.959
301.481 -67.2356 369.06
137.197 -22.5061 133.205
-157.845 387.103 532.435
186.139 174.093 49.787
1339.34 -720.871 2138.63
-144.464 347.754 488.536
-889.795 643.127 1635.31
358.359 -126.791 486.212
-3.84361 237.042 233.137
75.0905 189.372 99.5254
202.416 23.2897 182.904
365.897 -322.755 643.533
206.533 82.8567 144.621
199.677 131.084 100.95
1009.44 -257.638 1404.96
70.9035 10.5772 28.5306
-316.549 371.732 728.013
-200.868 350.9 567.025
-305.639 598.013 883.532
60.4685 215.427 136.846
156.665 108.81 64.1024
274.264 -110.97 376.735
167.156 -15.7202 170.316
-40.4947 164.309 226.611
144.807 169.341 48.7627
216.912 -37.6548 250.325
-19.0274 183.57 214.684
14.9593 223.302 201.342
246.842 -1.69013 262.056
201.941 -30.375 227.535
360.196 -217.443 570.17
391.466 -315.915 684.402
-263.834 583.59 830.921
191.001 109.759 107.96
1295.03 -512.881 1990.86
-46.2217 213.255 274.073
4222.89 -5041.23 9189.87
147.874 166.004 53.9052
323.144 -203.028 515.888
49.5703 54.8675 31.9733
-1028.56 650.701 1873.13
0.883438 214.912 216.597
-1205.68 898.943 2295.33
126.469 108.196 45.4095
-653.805 1104.67 1748.73
-857.471 1609.79 2400.68
194.569 103.684 118.201
106.688 45.7152 48.7821
-38.1736 247.536 294.65
232.504 25.2874 228.44
260.06 -54.8824 327.284
207.772 -14.3142 228.66
-234.795 566.986 800.099
3073.39 -864.874 4639.97
107.811 168.457 57.8241
119.509 158.593 58.1734
231.717 53.8932 208.423
163.162 -19.6391 175.806
86.0711 57.7919 40.049
-32.4485 179.757 236.867
338.07 -347.473 663.4
-44.4206 180.696 254.137
114.579 161.718 60.5556
153.272 105.797 65.5475
170.914 -24.0387 190.67
232.421 -6.0836 258.705
2550.57 -4299.17 6712.02
3.94565 64.1938 99.6165
-429.701 486.673 1009.02
308.425 -164.129 485.529
129.35 3.88343 114.547
-109.354 289.812 429.528
101.655 97.7056 53.107
-1357.19 2900.35 4164.66
-3564.87 1761.13 6217.75
169.77 150.528 69.9115
-265.418 445.141 765.211
296.03 -154.085 464.436
92.0181 23.516 49.8653
16.103 220.289 209.475
40.6284 46.2078 42.7019
-30038.1 17838 54921.2
-314.542 614.49 973.545
86.3674 187.451 88.5118
227.026 19.7426 236.723
3111.5 -1672.3 5514.91
-38.2525 155.108 231.461
238.755 3.49944 267.568
701.934 -1320.72 1969.51
-654.286 479.535 1334.52
1172.28 -709.514 2119.3
390.717 -206.7 646.308
-284.355 713.2 1021
307.946 -224.091 549.211
213.602 -42.0859 273.224
79.1993 48.392 54.5972
-1285.22 2053.42 3499.25
610.493 -1052.45 1648.07
-235.391 287.669 613.26
-2865.55 2196.46 5804.96
76.3724 1.25244 51.1
-135.219 283.151 473.184
103.896 163.283 77.7338
193.125 59.7575 164.812
-31.0696 147.118 218.042
-428.327 1089.46 1547.16
257.38 -49.834 345.175
2039.78 -3786.62 5910.46
10725.2 -7496.71 21092.5
-89.1502 251.245 385.798
-81.8702 233.993 362.56
-14.8645 230.947 266.297
134.499 159.427 85.545
259.897 -54.9688 356.477
152.029 -14.3236 171.459
366.854 -273.947 691.164
-5554.47 2861.47 10273.6
-169.543 315.34 556.706
-211.287 430.639 712.403
555.21 -678.769 1300.79
-13.8074 236.007 272.765
108.375 139.357 84.5304
345.231 -97.7236 518.623
17.9899 67.5948 85.8772
-30.1936 125.631 203.489
-325.693 680.429 1094.61
209.721 74.1316 182.444
31.3251 185.342 167.098
197.724 25.1646 206.749
362.927 -217.31 649.639
1364.69 -2952.04 4418.09
249.607 -27.0492 326.346
1111.82 -2954.47 4072.32
126.552 25.6754 106.384
334.666 -302.061 687.497
-518.921 440.313 1182.2
-1916.89 2745.4 5188.64
-2192.5 3719.87 6427.49
-632.966 1371.67 2153.41
168.317 120.226 98.8904
213.727 35.0556 226.169
375.548 -94.4453 573.449
1.0593 106.568 145.091
-305.55 389.142 836.66
-38.8013 170.213 259.208
-107.069 289.514 462.779
137.57 136.448 100.275
217.733 24.9731 242.346
292.127 -118.896 476.837
20.1405 22.6793 67.8839
141.801 35.907 122.801
-171.685 361.124 624.023
365.369 -313.509 758.821
275.557 -105.975 445.59
-78.861 259.425 399.469
856.983 -1213.03 2284.99
376.485 -333.847 799.671
532.637 -735.752 1393.56
600.442 -203.45 1023.59
-4.93123 90.593 142.431
-112.972 300.672 491.464
204.402 119.756 144.73
272.664 -61.4729 409.063
-160.455 424.654 675.545
106.316 126.68 106.003
-278.803 712.598 1112.14
257.51 -48.8253 377.665
175.721 -44.5333 250.714
-3.73592 84.3236 135.521
249.256 -50.0433 367.63
377.777 -421.706 899.151
-419.175 407.853 1058.14
-10865.4 13009.5 28324.1
139.032 121.998 115.111
385.639 -454.269 948.2
3.09635 85.5578 125.76
-287.244 718.603 1145.49
225.693 5.54622 287.442
0.714322 84.6048 128.972
-44.2381 147.264 255.948
110.916 47.876 104.079
427.768 -299.903 880.972
-4043.36 3589.21 9600.49
-140.401 287.813 534.912
13209.4 -22908.7 41604.5
612.008 -697.67 1545.16
-16.2186 129.676 197.018
-163.705 298.353 583.021
462.368 -513.543 1146.53
154.477 135.575 132.254
900.57 -277.967 1616.45
60.5297 152.979 121.193
403.294 -107.484 679.943
955.785 -1602.14 2953.66
-4.84873 65.6397 122.072
-158.559 301.464 586.021
16.2635 206.516 221.247
65.899 145.202 124.843
151.973 85.0231 129.8
234.904 17.9921 302.91
23924.6 -10697.2 48210.6
196.512 -26.0731 286.202
-140.6 362.433 622.257
67.3592 192.988 139.22
2309.04 -2806.98 6344.11
42.8125 42.0476 111.344
11.5987 88.5396 118.855
125.813 163.639 146.06
2015.57 -1115.7 4271.78
170.67 88.743 141.337
274.727 -66.9566 456.36
-669.808 1452.01 2549.63
-658.558 647.179 1757.41
250.076 -38.735 391.929
261.872 -59.1379 434.15
48.3681 99.2937 130.65
-132.351 311.341 575.133
1978.01 -2872.34 6028.1
-1112.52 2226.16 4072.04
179.277 110.443 157.27
-54.1558 184.521 323.093
184.445 107.29 160.43
67.4679 15.491 125.772
1168.1 -740.947 2631.53
-116.812 307.217 551.927
204.788 94.1856 196.838
176.8 -24.3695 268.388
-130.364 305.23 574.612
183.399 36.1831 219.956
517.126 -593.341 1412.99
407.76 -454.004 1091.09
-196.312 378.562 764.313
80.1257 12.6321 135.787
-21103.2 10841.3 46817.6
-232.983 517.771 972.095
225.514 39.0827 294.751
305.326 -123.659 600.509
510.138 -179.12 1011.28
79.163 37.4715 146.982
51.4441 192.589 168.492
46.7257 82.5298 150.105
336.16 -168.102 706.113
19.9372 66.7312 144.693
40.925 84.0483 152.497
181.581 93.7928 184.65
24.4449 62.2545 148.031
7804.91 -4872.14 18739.8
153.175 106.729 185.737
70.2365 69.8399 163.983
409.33 -179.623 869.372
259.842 -54.9541 472.982
66.7711 68.1673 164.781
1022.8 -1500.86 3366.19
-44.1026 203.682 341.033
-1070.8 1031.44 3079.79
-2184.73 2532.97 6723.34
687.125 -894.068 2175.38
221.443 43.6801 322.749
70.01 105.192 188.918
221.218 41.453 329.295
89.0736 86.9459 194.216
1552.81 -1399.36 4408.38
-332.524 587.128 1304.06
884.117 -311.724 1975.05
114.337 140.557 217.128
270.227 -60.4301 548.645
-402.318 648.91 1525.98
268.773 -60.8642 552.822
236.946 -24.9019 453.297
-150.263 516.147 904.942
204.58 81.6821 273.087
213.321 27.1752 357.186
411.356 -119.137 913.264
1248.58 -590.447 3103.12
131.692 16.3391 228.048
189.003 41.5632 299.783
187.717 75.1364 267.752
306.795 -136.338 759.485
886.147 -401.987 2243.39
218.004 -24.831 464.366
243.283 -25.2401 528.15
226.566 25.0465 452.884
-159.069 239.949 646.997
71.1704 280.596 333.605
240.313 -9.64993 131.952
-19.267 208.261 384.289
238.094 -4.55371 125.009
228.937 -42.5989 145.57
-35.7278 228.44 425.984
-74.3725 251.461 497.399
245.099 -37.7245 162.716
2638.02 -2294.32 5214.39
108.668 131.618 161.413
400.989 -120.825 438.669
233.29 -23.8067 135.43
184.066 63.7083 3.95592
149.213 79.9824 65.3132
188.508 -23.4369 76.8089
-50380.6 31625.8 94550.2
186.323 64.7215 3.23847
259.554 -54.7899 198.772
343.784 -108.765 359.301
274.901 -64.9044 228.928
155.747 113.205 88.1161
240.343 -14.3596 138.498
283.568 -105.404 277.371
150.804 12.1123 6.74771
-548.266 601.895 1468.63
-309.356 414.993 981.825
813.058 -394.67 1251.05
502.526 -248.557 703.909
505.242 -317.644 771.707
201.341 66.8304 12.6905
-4006.73 3418.78 8772.16
151.599 57.6384 47.9764
582.797 -410.318 971.395
116.447 146.247 177.952
124.941 139.359 161.153
64.5764 156.013 260.59
192.709 37.9009 25.6069
280.191 -85.0419 260.415
288.846 -113.017 298.422
899.564 -374.746 1391.93
756.539 -312.814 1138.37
205.926 20.6329 59.0238
267.242 -69.061 228.532
-575.999 527.839 1517.02
183.935 90.6354 38.6461
1150.56 -688.354 2067.43
204.359 -18.5134 93.028
102.457 54.865 122.489
-67.6584 253.007 554.232
1119.79 -644.416 2001.6
769.958 -541.537 1411.49
112.331 131.803 186.772
-35.0823 220.878 488.281
231.873 -21.2612 133.969
249.41 -42.0006 179.92
612.834 -503.745 1170.23
171.772 96.2991 70.804
329.938 -172.886 429.29
6522.56 -3643.46 13043.2
724.241 -320.934 1170.43
-1577.14 1392.71 3993.92
320.822 -158.803 405.451
-281.427 359.39 1025.55
-440.541 512.009 1425.93
250.184 -45.1205 185.311
-273.475 357.036 1024.28
43.7738 182.711 362.894
678.721 -386.118 1192.07
228.174 -21.8015 127.836
165.167 50.0803 44.9436
355.025 -197.594 508.021
1226.6 -1119.19 2827.57
262.25 67.0357 85.3357
999.231 -528.527 1896.13
172.171 1.89156 19.0282
-93.9565 267.225 704.399
-929.185 725.656 2558.51
-115.531 281.143 768.702
-68.8729 248.49 663.553
364.363 -127.234 465.235
334.339 -150.585 442.637
125.994 120.599 203.744
74.5079 74.5463 242.731
59.2841 198.376 412.765
-479.624 486.006 1672.5
1211.24 -783.237 2689.75
190.415 25.8477 42.0187
123.201 48.6536 144.404
30.1689 198.327 486.146
497.407 -316.255 945.501
-97.5386 268.911 872.719
-258.402 378.772 411.542
107.593 107.588 88.0213
-101.99 273.409 234.222
-144.757 323.082 293.445
-39.0158 244.988 170.67
-11.7531 225.592 139.487
58.9197 169.993 89.7964
-528.399 558.813 730.666
-207.429 358.162 368.404
445.295 -233.239 458.545
-370.952 566.081 606.219
-10.4485 232.398 146.148
1135.6 -708.29 1271.52
20.3303 207.251 108.49
139.308 89.7664 77.8276
529.286 -327.627 581.948
-1399.85 1669.66 2033.02
-558.292 504.45 754.149
61.5323 167.626 81.2915
-2779.04 2253.29 3517.99
43.3202 113.888 86.1893
45.4883 214.912 95.618
-126.362 282.676 277.868
-47.9397 238.173 189.669
282.019 -70.2354 248.109
-45.2455 244.606 191.098
88.2907 127.331 76.5749
332.272 -107.196 311.189
78.2231 77.1517 80.5436
-3.83316 234.28 151.097
-268.799 367.186 450.818
-472.154 548.368 719.364
251.208 -44.8065 210.29
-73.904 245.069 221.409
-1148.55 775.218 1437.98
1763.17 -1053.39 2054.01
84.9533 183.104 69.0958
-10.9721 217.598 153.191
38.3569 174.749 87.8281
292.109 -77.8293 264.797
895.809 -777.377 1156.42
33.534 113.223 77.8727
-238.549 328.58 414.391
59.5409 200.504 83.9755
100.414 154.614 66.6095
681.745 -288.475 722.025
26.2451 141.389 84.0248
-121.848 276.664 285.714
116.007 152.958 63.7099
25.245 167.676 99.2375
178.509 -4.47204 126.908
51.5573 89.7278 74.1491
-17.2884 241.875 176.928
25.9413 203.375 117.969
-3646.22 2749.65 4759.64
208.026 9.30539 146.451
138.713 39.6626 67.502
-187.32 308.169 369.027
135.04 115.176 60.8498
-2234.39 1179.89 2696.38
110.892 154.952 59.3068
1703.06 -898.298 1991.67
-158.221 317.114 349.405
-45.08 225.05 197.528
2770.34 -2598.57 3868.65
439.76 -340.267 544.371
-366.935 347.51 560.757
13.7311 226.416 146.997
26.7619 220.07 131.616
2012.3 -858.749 2274.96
-1001.96 874.361 1430.3
340.676 -160.17 360.298
120.269 15.6787 66.7111
-172.461 306.172 364.277
176.914 55.6729 94.0044
234.125 -42.2557 199.504
-138.06 288.558 324.008
-54.7215 242.894 222.718
149.689 107.554 53.9668
269.232 -69.6004 247.694
-244.501 439.016 506.679
-573.661 456.733 826.26
159.874 113.775 51.1861
35.7967 186.817 109.724
377.568 -111.864 373.482
97.6946 58.2052 61.3452
162.938 -17.1195 120.026
-76.3913 260.705 256.871
60.1658 189.413 89.1598
172.002 55.8206 89.3256
179.786 6.60338 123.383
-162.399 284.58 352.18
-860.819 463.215 1113.12
-1248.04 671.23 1594.37
128.082 158.61 46.8236
-119.931 282.877 313.079
165.167 76.6234 71.1618
177.091 63.8713 89.5073
272.627 -75.5813 257.098
135.399 11.2944 78.3933
3.60578 141.601 119.242
-41.9533 250.102 222.612
124.277 168.464 44.296
789.754 -388.008 925.677
204.444 2.44098 149.568
699.239 -215.193 745.733
290.049 -68.8929 271.966
112.501 39.8386 56.8523
-128.791 279.699 324.014
-109.198 275.573 302.899
192.63 54.8609 110.2
208.921 38.3039 135.093
24.2855 113.383 84.6964
-88.571 266.057 278.72
50.9092 186.472 99.7269
106.787 127.713 47.0766
310.172 -149.64 338.549
-79.5539 247.452 260.521
-1708.63 760.615 2128.01
-215.89 321.367 435.094
-14.5064 231.028 189.165
134.098 111.166 45.0158
56.1944 223.494 116.175
-41.9233 246.121 224.983
1636.69 -729.405 1961.14
7884.07 -5463.15 10726.9
-716.525 727.304 1155.38
4286.76 -3379.78 6044.22
549.627 -303.292 661.605
-85.5585 256.637 274.281
-1771.89 2280.57 3064.05
31.2505 217.741 138.293
101.082 157.81 41.1467
662.808 -260.903 750.287
-147.105 304.136 362.366
193.292 45.9435 117.074
218.838 9.27541 162.909
85.4517 43.7099 53.4837
-36.9315 250.139 224.805
41.4473 196.061 117.097
747.394 -345.051 885.091
167.069 6.42056 114.198
-131.479 278.797 334.954
-19.6499 229.3 196.622
101.521 132.221 41.3429
192.206 48.5319 115.393
234.534 -10.8175 191.072
257.086 -50.072 235.776
226.301 -45.7698 202.979
-53.6558 218.581 224.765
-1760.22 2302.18 3103.94
26.0078 236.418 156.364
53.1664 206.903 112.569
323.476 -79.4916 319.198
163.801 7.77428 111.055
76.3964 70.2323 48.6388
-147.68 286.789 357.913
15.7934 223.26 159.393
170.247 127.549 48.8163
94.8974 147.439 37.8002
-6818.69 2641.86 8365.93
-160.919 291.893 376.419
-177.523 309.862 403.392
137.861 96.4691 38.7822
353.131 -172.956 405.394
357.565 -181.331 414.678
90.7469 18.1266 50.8589
-914.144 481.335 1240.12
-199.674 317.328 431.257
-123.589 286.038 337.044
292.004 -93.1937 299.26
633.113 -589.404 930.91
103.718 175.88 45.9843
167.278 100.454 61.8944
649.404 -257.395 755.468
638.6 -294.061 766.181
109.694 41.5609 44.8553
75.3589 68.4044 44.6815
-4.65788 142.989 135.946
-194.067 304.202 420.897
-108.73 276.856 319.048
171.615 40.6413 101.694
313.32 -119.36 338.261
183.087 -35.5944 157.933
134.857 11.2703 81.7392
-496.458 410.468 790.051
-1221.97 923.384 1824.63
-206.454 345.946 459.511
188.811 62.6247 106.431
195.278 55.7705 117
208.917 43.5288 137.985
-16432.5 5515.1 19944.1
-184.154 309.17 416.745
-168.968 303.007 397.724
-178.241 330.705 423.532
-331.592 572.164 721.882
18.0842 219.311 158.584
62.9941 172.138 85.0489
98.3632 133.388 32.6459
128.706 99.6642 33.7791
540.544 -230.979 639.105
212.806 -22.7865 182.428
20.9217 137.159 107.597
135.076 193.527 24.7671
1315.53 -319.38 1483.77
-6391.37 3959.39 8924.55
-10361.9 7496.77 15083.3
-53.8772 221.176 234.358
-83.0003 250.464 281.528
-91.8311 265.814 299.685
45.1396 167.43 101.023
196.932 50.4015 123.92
222.854 16.2107 170.835
65.9049 98.0571 38.8718
16.2885 233.584 170.642
99.3957 163.293 43.3118
418.688 -106.764 446.229
259.042 -55.2836 251.462
380.501 -176.142 448.821
562.415 -410.893 776.764
149.574 162.263 20.9154
538.023 -163.144 604.752
-1451.63 634.388 1928.17
-554.69 441.225 886.312
-477.038 521.707 854.937
-413.665 494.829 773.319
-383.765 476.744 731.539
718.161 -492.773 991.533
-1138.29 1374.68 2053.03
1079.28 -1162.41 1769.17
59.32 225.154 122.03
159.083 173.563 17.2096
162.96 169.059 19.0341
-2300.55 1132.06 3115.76
-526.506 499.278 895.531
-249.079 352.856 519.496
-251.347 374.938 535.257
-344.64 468.994 688.935
-138.123 302.287 373.958
-122.503 300.674 356.813
-892.462 1406.98 1825.62
252.268 -52.319 246.342
162.791 11.3802 114.585
-248.364 342.5 514.619
-120.265 280.284 343.368
-94.5386 267.01 308.5
387.232 -83.6675 407.075
-32.3077 205.724 207.232
-360.967 595.894 788.522
71.002 203.838 98.0545
170.879 83.7514 79.8154
193.056 52.9287 121.858
214.829 28.1549 159.773
157.352 -28.3752 134.199
-1513.75 793.493 2121.31
1833.5 -916.707 2437.36
-197.667 332.269 458.861
220.769 -30.1701 202.366
889.491 -717.347 1327.88
2603.3 -2622 4300.9
-1615.7 2022.7 2990.78
14.3383 231.271 175.247
53.5643 192.637 110.151
181.984 68.3249 101.623
186.128 63.1687 109.163
217.815 21.5576 168.174
233.89 -5.92574 202.046
363.325 -278.033 506.17
5327.64 -1486.19 6493.84
-770.663 599.873 1232.48
-253.972 374.937 547.97
445.698 -171.036 529.092
360.329 -118.962 406.524
322.414 -128.752 372.543
283.676 -105.88 317.396
303.297 -151.497 366.479
103.524 -3.95681 63.3339
23.9774 100.02 85.6356
-210.361 319.621 470.738
92.9033 148.395 42.3471
416.961 -111.1 463.521
-8919.6 7138.18 13986.8
-1.95248 227.053 192.679
97.1347 147.038 37.1343
117.625 124.724 17.4678
134.621 108.968 26.595
-824.304 815.23 1439.35
28.8342 138.03 104.884
-49.3565 255.364 261.779
26.2908 227.022 163.185
186.202 105.26 84.1156
248.509 -29.6674 235.467
263.937 -65.0517 274.184
243.849 -49.5222 242.932
220.493 -39.2287 211.462
-455.842 386.377 780.971
-1376.5 989.305 2148
403.47 -168.338 489.898
263.828 -58.9973 271.263
790.605 -643.366 1204.5
3622.03 -3937.7 6317.45
73.5163 219.485 108.029
106.689 178.911 46.7776
134.74 163.601 8.6062
688.091 -342.064 907.813
-908.063 906.24 1599.37
235.864 -28.1425 222.651
290.852 -94.4149 323.763
279.67 -106.45 319.362
193.669 -23.5215 174.176
84.6833 33.7511 27.643
-431.072 417.87 779.861
-557.872 538.219 993.226
28168.1 -20720.7 43524.8
78.2568 136.438 51.258
505.149 -346.197 716.326
-954.981 1410.21 1976.26
127.991 180.788 25.269
150.158 169.091 6.14453
705.866 -187.049 834.743
336.959 -134.798 401.875
338.412 -172.456 427.487
473.804 -380.206 706.727
-748.523 455.54 1154.62
0.0995636 217.863 188.72
138.862 79.7419 50.5935
268.55 -58.5869 280.196
558.904 -353.963 786.031
-173.171 386.984 486.904
167.355 133.059 47.5714
199.147 73.3925 120.626
419.799 -103.947 475.731
158.525 74.2397 75.3812
-1868.2 2018.51 3399.89
-27.6859 240.503 236.121
75.4797 146.225 61.9809
118.184 108.236 10.2044
144.928 81.436 56.1018
417.045 -252.086 570.349
151.449 170.985 5.87003
207.857 70.7794 132.786
267.467 -73.7542 291.956
224.165 -43.4691 224.671
107.337 65.2829 25.4546
-390.74 571.062 851.251
634.201 -572.212 1019.43
126.913 -6.74254 93.4634
-49.4513 251.813 269.245
37.6197 197.221 137.487
189.538 33.2528 137.228
-8915.01 13106.6 18444.6
103.45 200.283 66.327
-17.766 227.404 219.126
38.5891 178.455 124.62
219.175 47.3119 161.38
230.279 31.7883 183.851
179.85 -19.8252 161.554
-9.99332 138.564 153.171
-52.1062 247.233 271.149
-1.6843 206.285 188.154
86.7227 144.214 49.0279
281.414 -90.1397 321.56
299.961 -122.634 363.549
308.761 -150.883 391.907
197.663 133.097 82.3841
-109.919 277.575 356.685
-2.4036 202.319 187.022
162.21 59.3539 91.0562
204.052 16.5498 166.005
233.575 -49.8619 242.723
93.1572 79.1498 9.97553
-130.835 303.282 398.346
-852.526 1073.82 1715.02
11.7889 231.269 190.985
-943.355 569.259 1488.16
2383.8 -1208.92 3426.13
-1888.72 1362.17 3075.54
37.3562 173.283 124.742
822.373 -731.149 1356.8
382.378 -259.97 550.15
371.905 -277.878 550.292
158.234 179.533 10.419
1656.33 -922.062 2428.25
387.477 -222.813 533.176
450.144 -488.9 781.163
-611.529 507.027 1082.38
-112.127 275.835 363.233
1559.34 -1581.57 2769.05
146.717 166.863 10.1558
201.23 85.1596 119.327
244.729 -11.5307 233.393
303.582 -66.7373 337.241
277.79 -61.725 304.559
493.62 -341.134 738.016
720.642 -654.819 1207.28
669.114 -604.697 1114.97
400.427 -441.483 699.73
53.2361 21.385 15.4563
-267.468 320.791 574.764
169.973 158.889 33.5515
190.256 146.846 64.8253
140.456 125.989 21.5906
253.88 -45.8222 267.648
161.087 125.741 46.003
336.033 -106.319 404.018
-645.292 564.508 1179.1
-4844.75 3563.54 8046.74
188.762 32.2631 141.675
247.723 -19.5358 244.705
253.495 -32.1072 259.904
332.42 -147.429 429.466
301.175 -132.588 383.372
-5404.98 2535.21 8034.92
201.097 -27.8148 197.369
-57.3479 224.065 273.884
107.031 184.16 56.1677
208.102 58.9756 146.768
192.376 -61.0474 210.899
-3.20327 144.938 157.651
-873.057 1321.58 1976.22
39.1811 217.918 158.453
217.589 97.5298 131.739
483.39 -55.4324 546.337
191.82 -18.073 181.343
181.799 -10.8593 164.698
409.659 -334.588 653.598
151.88 179.143 22.091
248.543 -29.413 256.198
507.685 -705.892 1026.63
193.929 122.671 88.0103
170.332 -33.2728 168.371
1935.89 -2071.83 3650.6
140.689 -18.0189 122.775
86.9371 43.727 16.7581
72.4846 216.599 120.244
173.197 136.805 53.6736
220.379 48.4663 170.717
346.391 -124.979 440.002
177.969 169.928 36.2763
208.606 114.148 111.459
574.16 -154.929 731.545
559.635 -155.98 715.139
336.708 -87.5278 403.926
1603.25 -1677.55 3015.85
530.064 -515.865 933.058
-51.9669 254.667 296.347
254.079 -47.1441 279.08
78.4865 212.786 111.827
193.627 125.732 86.3146
1591.79 -585.532 2251.92
4540.32 -3549.6 7856.63
-141.699 326.257 454.856
1323.29 -1852.47 2829.82
200.904 137.515 86.9393
227.327 57.1346 175.416
-2797.31 4421.28 6537.06
132.727 169.073 28.0037
158.432 154.476 28.0301
928.552 -384.562 1330.98
261.094 -58.2091 298.568
-129.554 310.426 433.998
-59.2138 256.492 310.9
185.018 73.051 114.178
-3994.68 7332.67 10113.2
178.207 111.102 79.4961
186.328 101.091 96.4626
226.782 27.6452 197.896
271.902 -103.498 346.36
648.726 -246.5 906.262
124.678 27.3785 75.4036
60.4249 45.5434 15.9944
-61.9237 253.301 314.164
142.736 95.9196 48.0204
-1313.29 2045.78 3129.31
200.252 92.5244 121.122
221.183 -45.8332 246.7
2076.67 -556.438 2883.13
-1454.5 801.755 2413.37
-10021.2 6038.18 16675.1
711.338 -335.688 1056.66
319.352 -114.746 417.662
363.405 -273.458 586.865
194.745 114.279 99.8555
304.263 -191.148 456.232
558.185 -530.796 1015.62
-29.7012 151.307 203.579
-17.1122 236.985 250.654
74.3911 149.704 74.17
171.399 61.7143 109.599
208.645 15.1931 189.498
262.165 -61.3182 311.393
833.913 -210.56 1127.91
496.079 -135.986 656.173
-132506 99019.7 236451
-49.1171 212.86 273.351
6898.23 -2405.29 10264.9
623.219 -214.256 873.99
-276.16 404.005 696.887
-1669.92 2172.25 3730.16
911.361 -1086.32 1875.51
12288.2 -19751.2 29763.1
164.73 128.961 53.2151
252.898 -25.8847 277.249
28.012 113.488 105.828
325.715 -263.924 544.375
327.234 -318.909 587.075
-257.74 535.349 776.509
136.054 191.007 46.9915
546.144 -176.761 757.475
-89.8264 255.013 360.162
50.0891 199.234 143.157
1376.79 -2187.5 3304.43
-1739.39 830.423 2867.6
-2043.17 1159.03 3496.4
-1584.76 1561.47 3222.48
380.343 -122.004 514.787
197.906 89.1415 126.184
386.04 -361.401 704.43
-3080.3 1687.58 5246.15
-200.004 427.024 634.635
196.718 132.089 93.4255
-153.312 358.002 525.07
41.4486 211.126 164.696
100.231 147.544 45.3882
147.225 114.719 44.566
146.427 19.8451 114.776
-589.231 806.87 1427.85
887.505 -1550.99 2263.82
940.327 -1702 2446.86
188.113 154.208 66.1356
271.386 -89.2093 359.269
2063.26 -2308.76 4363.89
189.247 -35.8252 213.765
426.776 -300.145 723.632
128.99 144.845 51.8293
161.584 122.957 56.4812
272.173 -100.842 372.077
62.7966 72.5135 35.1597
-25.3705 164.555 218.133
-190.971 307.931 543.607
-30.6418 220.176 267.799
-322.878 521.395 880.069
192.712 150.466 76.5394
237.234 30.0393 227.868
75.7759 9.99668 33.2206
908.371 -302.703 1362.9
256.789 -50.648 317.152
346.795 -216.889 564.094
322.411 -194.965 515.218
132.3 4.63934 111.351
40.7385 26.0424 29.8027
-190.009 302.011 544.158
-82.946 263.557 373.551
-50.6187 246.003 317.191
300.249 -101.651 418.258
80.1513 25.4911 36.0156
4064.76 -8737.21 12199.7
262.359 -61.3245 337.966
110.714 28.814 65.8259
-117.468 303.691 454.089
-234.181 498.499 766.059
43.8214 197.205 156.404
478.739 -358.589 865.674
475.508 -542.81 1008.26
30.0871 50.3985 58.4473
1246.21 -610.697 2101.07
-358.587 380.723 843.341
187.787 142.376 81.0148
251.732 -31.0414 306.066
154.074 6.46979 144.529
31.2086 103.064 98.3896
-558.221 877.085 1513.88
-190.698 465.435 688.437
479.344 -354.095 874.321
86.6895 190.578 93.1332
152.991 122.565 67.6517
340.756 -192.703 559.255
321.37 -271.716 596.916
113.86 -12.0051 106.678
-982.931 664.622 1926.88
235.702 13.8634 251.643
-79.245 234.727 355.626
397.138 -541.135 924.198
629.377 -171.898 942.986
310.938 -127.281 471.775
-891.444 1845.79 2783.47
120.181 185.871 79.7609
228.299 10.8046 247.219
-53.6266 166.788 267.511
-67.9065 233.588 341.826
2.96158 216.551 231.445
308.34 -138.018 482.459
589.773 -757.277 1382.01
119.382 -2.40092 110.368
519.005 -160.983 797.259
13.1629 67.2468 93.8587
146.588 176.017 87.3648
193.646 117.022 116.072
-146.559 295.496 507.062
39.1581 170.452 145.273
-218.275 456.112 743.379
-306.243 665.83 1042.65
340.812 -226.306 611.199
1635.09 -3741.48 5374.01
-2849.05 1530.8 5352.47
234.971 -40.3582 308.14
-745.477 1199.71 2115.62
183.428 141.077 92.6056
6716 -4018.29 12850.5
23.0613 190.969 185.123
-566.166 817.288 1549.55
-1423.07 2143.28 3885.76
440.996 -667.14 1133.51
-9102.79 4542.55 16882.3
211.056 75.8552 180.225
226.134 57.5245 218.531
963.158 -602.847 1836.67
-13.4417 118.443 177.452
474.405 -330.98 909.289
-424.347 994.822 1520.14
232.77 -11.7442 289.473
-573.459 1539.96 2206
336.224 -203.469 605.244
48.7279 76.4951 74.7836
-48.7544 188.009 288.432
-257.319 334.057 718.715
-60.3117 248.163 358.644
1129.93 -1406.77 2803.77
-3978.49 6628.47 11579.2
213.868 36.423 223.827
-105.684 283.629 457.146
193.431 105 136.099
726.063 -209.488 1191.13
219.21 -39.0443 299.691
-116.715 310.382 498.688
-163.773 438.263 682.673
297.514 -128.208 496.353
361.653 -297.321 740.129
497.61 -650.825 1258.75
899.643 -404.363 1641.66
104.045 11.8859 89.4609
-120.445 306.383 507.235
-202.61 472.822 777.957
46.04 198.175 161.933
-276.899 708.349 1101
257.465 -46.7804 374.735
578.867 -1084.33 1786.06
13642.2 -5706.9 25644.6
258.105 -50.4094 382.117
263.36 -63.3176 401.675
50.588 54.5554 89.0186
-0.312285 88.9834 133.423
-1064.12 848.568 2434.51
-243.216 534.78 908.502
201.13 27.4196 229.288
-7293.27 11094.7 21263.2
-672.231 1591.09 2528.88
1718.23 -830.889 3342.01
-2237.82 1605.71 4962.6
570.222 -272.892 1073.69
6.21137 159.613 189.466
220.803 1.23282 288.371
351.278 -222.741 698.324
666.812 -768.571 1693.08
179.721 123.34 131.525
20.0904 104.807 117.509
-198.125 342.737 678.508
-469.551 549.32 1297.63
47.6654 19.6393 97.326
158402 -349720 575457
185.239 118.965 137.329
1737.36 -737.444 3377.52
215.758 -35.2603 320.949
-442.517 531.866 1251.38
-152.565 294.912 570.737
773.11 -609.193 1752.53
-21.0053 233.651 305.618
-619.711 1109.4 2091.84
218.92 62.8732 240.065
223.225 53.6157 255.759
-361.591 606.361 1211.24
-452.508 861.909 1601.87
81.3445 184.197 141.99
-741.992 1601.35 2786.62
282.347 -66.3736 470.562
107.278 32.3944 124.999
251.901 -51.0901 410.087
521.879 -475.738 1261.91
74.5032 10.7717 117.641
-25.4205 158.63 246.084
252.969 -46.2876 408.906
152.695 125.916 152.537
185.7 101.559 155.285
-14.5364 106.779 179.343
-20.8287 149.776 231.524
-380.921 438.128 1109.89
-17.4001 205.109 280.049
151.461 124.995 159.449
237.496 -9.02109 355.222
311.421 -165.862 634.381
88.0638 9.89799 131.584
-11.045 144.189 211.095
-323.842 382.623 976.888
-100.893 275.968 494.401
-16.9119 211.708 287.989
118.42 110.693 158.436
273.503 -91.5587 511.875
217.582 35.2289 290.041
190.872 -21.3967 301.85
-1542.76 2139.84 4876.81
43.4049 27.2187 138.215
-139.961 325.054 619.179
141.504 120.655 177.146
226.005 -14.1321 364.882
838.481 -338.759 1777.89
257.029 -54.4986 466.891
62.4381 72.5974 158.751
-361.584 686.317 1393.73
520.982 -228.804 1127.59
121.864 147.87 190.745
393.893 -261.119 942.85
363.931 -107.169 729.484
19.9456 95.7714 162.011
136.702 5.71518 205.085
-309.135 418.374 1044.84
287.041 -105.776 608.286
1681.02 -1003.91 4155.01
336.186 -171.405 775.625
41.3895 83.1686 177.543
-253.137 360.819 893.853
175.796 102.847 224.631
247.028 -29.5587 473.161
-46.9918 206.926 342.415
195.796 11.7941 334.868
259.753 -54.3418 529.536
215.368 32.2177 359.311
236.113 4.07024 438.124
76.0765 94.8702 222.058
62.9895 159.237 223.873
244.635 -49.8361 548.426
802.265 -508.368 2237.02
63.8681 147.745 246.606
-10.9088 307.951 355.594
771.564 -273.053 1022.79
682.21 -289.233 924.027
158.793 50.3956 14.6304
111.798 140.664 148.009
213.674 8.62756 89.2364
256.269 -48.8641 190.798
293.35 -114.73 292.78
291.18 -131.348 303.933
548.149 -209.729 697.605
206.858 -25.8894 109.53
-1525.96 1232.69 3152.73
140.956 104.411 83.1488
157.058 85.2252 46.5278
244.024 -26.4695 157.89
352.091 -95.0641 355.269
339.591 -100.052 343.942
150.915 20.4864 10.6155
-447.116 468.366 1152.57
-73.1514 254.693 488.892
233.317 6.45584 117.35
272.058 -76.7939 238.324
-893.726 782.84 2020.15
109.853 124.675 145.614
264.253 -64.9326 219.074
208.78 -32.4818 117.956
6.26245 183.857 336.976
56.8575 185.172 271.215
100.476 144.038 177.731
198.898 41.7311 40.9121
372.981 -107.734 403.733
211.313 -25.5568 115.829
621.557 -498.489 1080.71
137.851 143.69 131.369
1899.64 -1038.4 3274.77
188.017 55.7834 12.7115
317.161 -102.025 326.686
202.709 37.0355 48.5735
251.76 -37.5441 181.673
152.307 11.7597 2.65857
325.482 -190.431 419.166
-4350.55 2781.7 8623.61
-203.602 333.229 772.235
-380.288 451.1 1123.85
62.9479 154.22 249.646
52.152 116.98 232.049
-8.31194 225.136 413.41
207.73 54.1253 38.813
-615.504 644.303 1634.85
264.127 -59.2486 219.802
-10.2911 225.192 420.643
42.8448 183.288 308.618
221.845 -2.29824 109.802
245.83 -35.1356 173.078
4838.83 -4919.34 11103.5
107.365 154.502 195.628
209.74 44.737 48.4802
341.626 -96.7397 365.586
289.852 -111.412 306.871
4213.58 -2092.66 7702.46
182.628 -2.37202 53.7014
97.6289 179.157 238.218
192.034 72.5989 25.5586
387.94 -147.284 484.427
-486.059 443.479 1332.84
-66.3938 248.492 544.59
441.258 -183.882 599.672
-92.3565 263.52 605.685
78.5358 169.103 266.011
-58.7385 242.509 542.399
157.907 68.7588 55.2225
287.101 -90.4505 290.38
140.493 148.619 163.43
2059.59 -1086.67 3918.88
184.057 40.5808 23.1734
266.681 -66.632 238.111
52.5998 106.745 258.891
405.98 -302.958 687.635
-238.423 326.453 923.502
159.917 110.074 103.583
-695.72 668.992 1980.52
26.6112 133.338 333.515
-2.12907 228.866 476.217
-2635.8 2189.78 6556.99
134.439 85.5102 121.934
-3626 4047.63 10098.2
118.409 155.791 221.65
87.9639 132.512 248.123
248.154 -37.8157 182.18
260.325 -70.9095 236.837
-642.225 521.267 1843.14
-569.721 494.302 1706.75
-92.5334 265.804 698.458
-407.348 540.33 1528.82
1299.28 -1039.95 3008.41
96.3378 54.7709 171.789
-84.8464 264.038 708.952
88.4562 162.432 308.329
103.002 151.052 271.462
-849.372 740.301 2584.6
-46911.2 36014.7 122871
652.267 -514.089 1444.89
60.7699 96.377 305.362
-3.51163 234.417 582.324
67.6566 151.953 368.694
99.8301 121.624 275.17
-3906.01 3702.06 12507.2
-1904.93 2113.85 2623.67
-14.2926 228.825 142.177
