ply
format ascii 1.0
element vertex 126
property float x
property float y
property float z
property uchar red
property uchar green
property uchar blue
end_header
67.1893 69.8108 16.5297 128 128 128
91.3572 87.4416 30.2147 128 128 128
71.4823 68.3704 20.3349 128 128 128
111.178 101.898 15.8027 128 128 128
132.364 105.99 28.5079 128 128 128
71.5242 69.6288 20.549 128 128 128
72.4173 68.7958 18.6802 128 128 128
134.967 107.441 15.4505 128 128 128
66.3852 77.5448 14.1642 128 128 128
91.5137 92.8268 6.68345 128 128 128
82.8263 91.4018 3.07079 128 128 128
84.4859 84.7902 28.4722 128 128 128
66.4921 77.2778 16.4961 128 128 128
89.4478 90.358 24.3236 128 128 128
67.3281 77.0468 17.8667 128 128 128
80.9798 85.0742 22.3482 128 128 128
126.231 105.072 10.6683 128 128 128
83.3122 84.5563 25.3705 128 128 128
67.2677 73.2673 18.1142 128 128 128
87.0469 93.6081 3.24218 128 128 128
105.664 97.6788 16.5472 128 128 128
139.833 108.929 18.2343 128 128 128
133.994 108.136 21.7652 128 128 128
125.151 103.505 13.2099 128 128 128
86.8439 94.2274 4.68048 128 128 128
149.017 110.788 34.6304 128 128 128
57.5803 73.9732 12.4519 128 128 128
83.603 83.2921 33.1406 128 128 128
103.84 99.3154 13.1823 128 128 128
61.817 77.646 15.073 128 128 128
91.741 95.8277 3.97352 128 128 128
134.477 107.81 15.011 128 128 128
74.7026 66.6317 22.1695 128 128 128
125.223 105.308 25.6745 128 128 128
142.406 108.407 17.6169 128 128 128
95.9443 95.9944 4.86868 128 128 128
103.433 99.8139 22.1572 128 128 128
148.391 110.092 37.1273 128 128 128
111.299 99.943 9.19301 128 128 128
105.654 97.4014 19.1653 128 128 128
106.123 97.9261 7.14594 128 128 128
67.1262 59.5772 7.21514 0 0 0
58.1113 77.189 11.8714 128 128 128
97.2187 92.2824 28.1804 128 128 128
94.5487 91.722 30.5044 128 128 128
99.3139 96.8882 5.77104 128 128 128
115.475 98.8971 43.2731 128 128 128
69.1599 69.6059 18.2498 128 128 128
92.3608 97.0623 8.9012 128 128 128
94.7458 96.8706 17.5124 128 128 128
114.671 99.3336 43.7939 128 128 128
99.1081 92.6171 28.9842 128 128 128
74.0474 88.0388 13.5686 128 128 128
94.8315 96.817 18.114 128 128 128
68.9017 69.8509 18.8904 128 128 128
135.915 107.781 66.9807 128 128 128
103.233 98.7085 10.8869 128 128 128
115.984 102.64 12.0149 128 128 128
145.822 110.35 92.0162 128 128 128
71.7758 78.5272 19.8858 128 128 128
93.8 98.6808 16.3085 128 128 128
72.7816 87.5489 13.3349 128 128 128
111.083 102.751 41.792 128 128 128
152.725 111.846 41.9681 128 128 128
78.1822 88.3116 12.9441 128 128 128
90.9626 86.2231 37.5396 128 128 128
100.467 90.9102 40.1487 128 128 128
80.9736 89.8155 15.3661 128 128 128
123.426 102.721 10.9091 128 128 128
86.5007 91.0388 10.8105 128 128 128
98.0291 93.0522 29.2412 128 128 128
163.964 112.623 82.9505 128 128 128
91.6334 95.8971 3.30725 128 128 128
59.3579 85.9948 6.81311 128 128 128
111.638 97.7996 30.4355 128 128 128
74.8719 82.0082 21.0719 128 128 128
62.9229 90.7096 5.19137 128 128 128
98.5822 91.3777 38.4896 128 128 128
83.1177 92.6579 1.78676 128 128 128
123.672 105.675 56.3463 128 128 128
101.763 91.9046 38.2859 128 128 128
102.544 92.5285 38.2546 128 128 128
63.5145 84.793 8.73283 128 128 128
68.1689 91.1239 4.31789 128 128 128
146.13 110.278 72.4228 128 128 128
123.935 104.439 63.4116 128 128 128
123.946 104.434 63.6744 128 128 128
66.2039 83.9941 14.3673 128 128 128
106.473 96.053 33.2954 128 128 128
112.352 102.133 10.1523 128 128 128
80.8874 87.5836 16.2673 128 128 128
76.3358 66.989 25.4983 128 128 128
148.003 109.667 43.7399 128 128 128
113.344 100.709 11.3934 128 128 128
102.85 94.9136 37.6306 128 128 128
76.0783 70.5927 24.8106 128 128 128
104.28 94.0449 36.2084 128 128 128
99.6967 93.6656 30.62 128 128 128
55.2546 82.0139 8.34132 128 128 128
73.7597 81.3021 21.3327 128 128 128
80.0463 82.4952 26.0764 128 128 128
106.087 95.9062 39.2322 128 128 128
78.2739 78.6914 29.1883 128 128 128
94.3126 88.4182 35.3442 128 128 128
132.841 106.67 12.6814 128 128 128
77.4787 65.9381 23.568 128 128 128
134.174 106.263 43.508 128 128 128
60.0493 82.1581 6.90642 128 128 128
64.2629 84.148 8.29098 128 128 128
94.9756 97.3892 4.49967 128 128 128
65.545 88.7596 3.78432 128 128 128
69.4157 85.5412 8.94599 128 128 128
123.89 103.858 50.7518 128 128 128
121.313 104.21 33.841 128 128 128
128.193 105.198 55.1576 128 128 128
75.8748 91.3279 3.89774 128 128 128
79.3682 92.4423 7.86902 128 128 128
107.871 97.7763 26.5026 128 128 128
71.55 89.567 1.7164 128 128 128
105.439 96.1429 32.0561 128 128 128
106.658 97.275 29.4341 128 128 128
61.5397 88.1418 5.30668 128 128 128
176.823 115.882 102.5 128 128 128
74.3088 92.664 2.37157 128 128 128
73.0961 82.9602 18.4062 128 128 128
69.9917 68.8162 17.3401 128 128 128
