ply
format ascii 1.0
element vertex 203
property float x
property float y
property float z
property uchar red
property uchar green
property uchar blue
end_header
137.186 69.9192 36.9921 225 215 206
137.69 71.2557 34.7968 225 214 208
132.74 65.2133 34.7422 61 55 57
131.954 63.0459 38.212 62 56 58
134.515 87.644 42.8324 192 132 36
133.551 85.7671 32.094 63 57 57
128.393 89.9755 26.8142 227 189 20
111.576 65.3033 14.8445 41 36 33
136.002 74.6771 40.8029 224 217 211
113.538 55.5151 20.743 61 54 61
118.077 72.297 20.4732 34 30 29
115.11 61.2729 16.3591 213 198 193
112.91 57.8469 22.0147 213 200 194
115.018 60.9347 17.2976 213 198 193
123.137 66.3445 26.7467 210 195 190
123.147 66.3765 26.437 212 197 192
112.112 62.0234 15.0759 43 35 33
109.901 59.4219 15.9549 211 193 189
129.97 79.2405 33.8366 217 202 183
119.539 65.8018 26.6392 48 42 42
119.648 67.3949 24.6102 47 42 39
128.753 63.3381 37.0293 60 51 54
129.865 78.333 35.0145 216 200 185
101.916 136.8 100.671 229 55 127
106.352 67.0807 19.0671 81 163 114
106.172 65.4603 18.1884 87 174 119
119.952 68.4483 22.885 48 43 40
125.145 60.2432 31.4343 61 55 59
129.396 102.064 24.0688 29 19 18
127.679 65.5827 36.2235 222 208 199
110.511 61.8958 16.68 202 187 180
110.424 64.2372 15.7722 45 37 34
112.644 68.7117 15.0612 25 27 24
127.494 106.692 15.5248 34 24 25
104.381 87.1808 24.8957 128 214 169
130.055 82.4753 32.1967 51 50 45
102.41 163.692 136.71 232 58 129
108.596 57.7272 16.4942 221 213 211
114.823 184.524 113.749 127 210 154
115.142 186.503 116.486 127 210 154
104.743 82.6974 21.9574 127 201 152
126.756 70.8992 30.5602 207 191 178
120.009 72.9167 23.0907 29 30 25
119.852 73.2889 21.5905 33 29 26
115.238 71.831 14.9382 39 36 31
115.431 71.4692 17.8498 37 31 31
115.591 72.0863 16.4324 37 28 29
130.878 97.224 32.5066 35 19 19
123.216 62.8624 29.9664 213 200 194
138.425 95.0209 38.4513 171 104 23
135.795 69.0198 33.4731 65 55 54
138.432 95.0434 38.4816 171 104 23
134.545 83.9045 40.818 66 63 56
112.54 128.268 42.0766 91 203 129
129.48 80.6673 35.4643 55 52 47
132.297 98.3347 33.2507 34 16 14
123.191 70.0111 31.7444 172 155 137
136.943 90.5041 44.3493 179 113 29
112.322 125.872 43.1791 53 110 57
99.1294 102.273 59.234 68 60 73
105.273 101.453 39.1243 190 232 210
102.061 88.408 37.552 238 73 139
122.908 58.8151 25.4907 61 55 59
114.564 115.369 26.1749 35 66 32
125.681 56.066 33.5625 59 54 58
139.015 80.6351 43.2603 236 205 36
119.442 58.3751 27.7005 217 203 200
130.495 61.2284 35.331 63 58 62
128.955 97.0013 22.6953 136 68 57
114.476 66.5612 14.6696 189 170 156
134.188 83.715 39.9831 64 58 62
110.295 73.2708 16.1775 69 145 70
116.696 121.739 21.1566 106 90 67
126.349 63.5805 32.9997 216 203 197
110.154 72.6596 16.4061 69 145 70
138.583 98.2819 38.4039 167 96 40
129.576 59.8558 32.5978 51 46 50
112.732 116.399 34.5651 58 120 57
133.919 84.6474 38.5195 71 65 67
137.415 90.402 36.9476 197 142 49
115.435 108.987 17.4739 64 129 73
111.586 128.52 47.9379 55 116 59
112.633 120.374 37.7723 84 144 90
114.574 105.029 11.0454 68 134 72
112.892 117.203 34.8284 54 105 49
111.793 129.64 49.8772 55 116 59
100.662 112.182 72.2066 65 57 70
104.668 82.3061 21.3472 121 205 155
115.66 106.131 13.1329 65 131 69
107.873 69.8026 17.344 64 114 55
110.076 70.7404 16.4994 67 147 74
110.884 132.387 54.3331 67 133 69
109.392 67.293 16.9858 78 148 86
99.7195 110.548 68.1738 67 59 72
113.182 109.109 21.9951 76 157 90
124.467 55.7999 27.5 56 51 55
124.158 54.8771 28.8386 60 55 59
128.035 81.8045 30.1736 63 103 43
104.43 135.493 86.0687 210 46 97
134.416 78.6729 34.6194 228 215 206
113.522 110.751 24.2189 74 146 82
117.376 53.2246 22.3454 60 55 61
137.568 95.2489 42.6198 167 98 23
133.201 56.4576 31.4363 225 219 221
127.938 83.1062 28.2249 59 97 36
134.11 71.3786 37.8366 221 211 202
118.971 60.5967 24.6374 214 199 194
140.711 97.6979 39.0765 166 99 20
125.806 95.336 22.5583 147 70 60
107.668 71.3204 18.0005 68 133 67
133.027 56.0032 32.2554 226 220 222
126.896 84.0919 30.3899 72 117 50
125.623 57.7184 30.3377 58 53 57
107.324 69.7526 18.0712 66 137 71
111.542 127.791 49.4131 62 109 55
115.934 79.5624 12.0274 23 22 20
111.08 138.825 61.001 100 160 100
130.169 49.6456 28.5876 225 219 221
128.978 109.492 17.7235 37 2 0
106.874 62.1781 19.1634 228 227 232
111.982 143.974 69.7706 95 157 94
128.084 88.0463 24.6838 75 120 51
106.932 78.2454 18.1523 66 136 66
134.911 70.7412 38.8553 223 212 206
107.793 77.1969 17.5734 59 104 49
139.162 85.2123 40.9161 104 81 31
113.885 75.2829 12.1851 61 98 47
123.401 100.059 9.75491 77 134 63
115.063 147.506 58.4221 153 95 71
123.42 52.2045 31.411 60 55 61
123.12 98.9876 11.6746 82 137 69
139.543 88.3321 43.8798 66 61 57
114.451 112.556 17.9198 42 73 32
127.774 84.5196 28.1156 77 113 52
122.574 99.2931 12.404 81 133 67
140.552 89.6271 42.8649 73 57 44
121.109 100.833 6.95454 60 115 57
107.725 76.1752 17.7289 61 109 51
109.332 94.7931 15.9079 56 101 46
113.5 110.647 24.8022 79 162 92
113.677 172.98 101.092 80 157 79
108.164 71.1107 17.7122 66 120 60
131.145 98.1813 27.3572 32 26 26
107.842 89.9765 19.4048 97 184 113
123.196 113.833 3.38318 164 71 53
123.639 91.3858 19.9817 53 98 41
126.62 96.5134 22.5352 148 68 59
114.251 170.92 97.9296 85 156 80
123.476 90.794 21.4768 63 106 50
128.42 95.1686 25.7707 134 66 57
107.623 69.015 18.4404 70 142 78
124.49 119.089 4.09948 165 72 54
111.412 90.8235 14.2331 89 183 105
108.245 79.5586 17.2544 58 103 46
119.102 62.4516 22.3087 212 199 193
134.818 79.3644 33.9827 234 224 215
107.261 84.6935 20.6646 120 207 154
107.479 85.769 19.8211 107 197 136
123.076 98.2238 15.594 43 17 0
127.132 87.9238 26.0428 82 125 53
138.45 87.7984 46.7235 190 145 77
117.29 95.0064 9.89604 63 142 76
107.881 80.2754 17.6588 62 107 50
108.721 90.404 16.667 61 111 50
120.58 94.2958 13.3021 77 122 67
111.927 93.1985 14.8987 95 189 111
108.448 84.5206 17.0008 58 103 46
107.556 72.6857 18.074 61 115 55
132.495 91.3057 37.319 128 66 43
110.991 108.739 26.7958 62 116 56
108.448 89.0701 16.9389 59 109 48
114.946 85.9048 12.0429 55 88 43
114.345 84.0312 11.5683 57 90 45
116.632 167.68 84.4029 169 81 67
113.027 96.7081 14.8117 86 178 101
120.096 79.9971 15.6751 45 82 39
100.178 197.495 195.229 72 64 77
122.792 97.7381 12.774 86 137 70
114.75 131.083 42.8349 93 196 123
120.491 119.656 14.6046 166 77 59
113.84 88.5729 12.6651 62 106 53
120.576 116.429 11.6218 158 76 62
117.854 86.8815 10.617 59 131 68
114.64 85.2678 12.4038 58 91 44
113.777 90.6153 13.3959 69 128 64
121.98 99.2693 11.3362 79 136 67
117.404 105.311 9.21969 65 114 58
115.595 158.534 70.6956 174 88 75
108.431 178.997 133.259 77 161 83
107.728 73.4748 17.7396 60 111 52
108.657 64.7641 17.2433 90 148 90
112.2 118.159 33.8313 89 147 96
131.174 98.2781 28.4202 32 21 19
116.968 123.162 30.4061 46 92 43
139.851 95.2085 42.1427 174 106 25
128.372 49.2992 29.187 226 220 222
125.476 81.8282 30.7829 67 105 46
113.702 90.2847 13.8526 66 127 60
119.394 114.862 7.1639 162 71 53
110.674 106.108 31.3992 78 162 87
114.753 85.741 12.3472 54 87 40
114.538 96.7641 10.3553 65 126 67
112.473 88.7141 13.5985 66 138 65
111.613 65.4507 17.9869 40 36 37
90.2806 45.5154 59.6201 70 62 77
118.392 73.4502 21.55 40 34 36
82.0486 57.1365 60.4464 81 70 86
77.5789 58.8225 55.5131 248 83 162
57.5277 80.2331 25.6888 91 77 92
81.4502 22.2331 57.5666 243 71 153
48.9128 73.1632 9.90092 90 77 87
66.5078 52.6957 39.0206 95 81 96
51.0236 68.0161 14.3048 95 83 97
67.72 55.3701 40.3387 97 79 95
53.5886 96.5524 24.9244 7 184 225
75.1355 58.2643 50.1338 93 75 91
112.16 66.7687 16.7604 29 31 28
86.1865 49.3163 59.9346 240 67 147
86.2496 49.2106 60.5266 238 65 145
88.4083 47.7333 61.2299 88 77 93
54.0598 95.7949 25.912 9 186 230
68.1368 54.7816 41.2742 96 79 95
54.5304 100.38 31.283 12 185 227
99.0655 48.3643 50.1047 137 219 173
54.3114 100.742 30.4381 35 186 233
79.9561 28.2541 55.5708 244 75 156
47.2006 100.517 11.175 13 184 227
104.155 57.9384 83.6507 52 21 26
79.7183 27.4215 55.9964 242 73 156
102.962 56.7707 76.5184 49 75 36
87.4784 46.9716 58.8818 98 52 81
54.246 95.4956 26.1664 7 184 226
114.391 68.555 23.0501 33 29 28
70.8973 78.3604 53.8691 5 187 227
79.1435 53.2684 54.9072 91 74 90
79.3 53.021 55.7292 93 76 92
114.994 69.7895 22.4661 38 29 30
59.5748 72.0804 28.1513 95 77 93
79.0129 53.4747 54.2898 90 73 89
54.2931 74.4863 19.0533 243 76 156
48.479 69.8755 9.42207 90 74 87
82.3045 51.7551 57.7948 243 72 151
50.3154 82.4143 12.0998 241 87 157
121.414 78.857 14.0282 35 35 33
109.297 58.368 105.446 220 178 44
123.708 89.1076 24.7445 206 189 182
96.9748 49.406 57.2252 75 159 99
90.704 43.7523 57.6377 72 63 80
61.3159 70.6709 30.5806 102 84 100
57.2655 37.0889 35.5591 247 82 161
104.116 56.9101 70.3349 80 140 89
102.355 56.5924 72.3681 46 84 45
96.9492 49.4559 56.6384 51 137 66
91.2036 48.6356 61.2793 73 62 78
91.6466 49.0156 61.1031 73 62 78
91.1252 48.7754 61.2021 74 63 79
90.682 49.2418 61.3081 70 59 75
53.0396 73.4381 16.5337 247 80 162
97.233 48.901 57.5885 25 101 39
106.413 58.1916 68.3178 69 145 81
80.6396 50.2825 55.8637 231 80 151
88.1017 50.6257 61.0193 74 61 79
91.7491 48.8309 61.4135 74 63 79
96.4726 47.7079 55.4409 214 66 118
100.455 55.5809 70.2068 53 112 56
87.8072 45.429 58.0764 74 61 78
93.5267 51.6219 64.8557 237 61 136
111.41 62.2519 62.0412 65 129 68
62.8167 76.0156 34.4245 87 81 95
75.1499 58.2416 50.3096 99 78 97
80.9932 23.6941 56.1216 242 73 154
85.4496 28.5172 54.6223 250 77 159
100.576 55.3192 71.0834 50 103 51
83.7593 29.5692 55.1954 243 74 157
102.131 54.9795 70.9349 85 174 110
100.277 53.8567 65.8389 65 129 68
49.8405 80.9792 10.8716 251 85 167
106.973 57.1684 28.1277 63 133 70
100.899 53.3016 65.1919 60 107 53
82.8667 52.4361 59.6829 169 66 113
125.626 92.2819 35.228 216 201 198
113.295 61.0747 73.3768 97 148 81
99.2397 48.0153 50.5531 138 217 172
100.893 53.3144 65.1454 60 107 53
76.7763 58.4999 52.8397 243 76 154
105.514 56.3624 37.7791 110 193 139
106.936 57.259 28.1914 62 133 67
62.9532 75.804 35.1669 91 80 94
104.594 54.64 46.0891 116 201 142
104.672 54.4616 46.1545 116 201 142
111.951 63.7594 43.8671 18 17 12
57.9884 75.0782 25.1515 135 68 103
106.55 58.1297 92.3607 173 74 51
103.432 52.0303 35.8157 70 139 76
97.8531 55.1147 73.6047 62 112 59
69.9844 54.7663 44.318 101 73 95
65.3381 33.3721 46.1728 93 77 90
76.3815 52.7653 51.1061 91 77 92
113.268 62.2637 75.266 133 64 49
91.0357 32.1255 46.9357 90 71 90
76.578 52.4659 51.5235 88 74 89
118.99 76.4062 11.0172 40 34 36
100.819 53.5494 59.1326 64 131 64
106.68 58.7524 103.289 192 94 57
99.5677 49.3642 49.6481 142 219 183
103.721 55.627 61.2862 89 182 111
101.162 53.6609 60.0636 60 109 53
103.942 55.1414 63.6839 75 160 92
103.757 55.5451 60.7236 92 183 116
103.692 55.6922 61.0087 89 182 111
101.47 50.9387 47.8561 76 157 90
101.191 53.5982 59.8432 64 113 57
97.0119 53.6862 69.2847 144 220 181
82.2733 70.2748 73.715 234 177 46
91.7105 48.9005 61.7982 77 64 82
94.823 48.5208 56.8671 229 85 147
108.708 59.2774 61.943 76 158 96
105.729 57.6999 66.1608 77 142 88
109.082 60.3724 51.9058 53 90 46
69.2012 68.5882 45.0031 111 75 101
111.223 61.4801 70.3044 69 130 70
102.77 53.6803 45.8789 59 106 52
86.945 29.9064 51.9121 91 77 92
109.383 59.8631 72.6683 63 124 65
50.6672 98.5992 19.2025 85 84 98
57.9677 36.3193 36.6036 242 75 155
111.431 60.9077 71.5571 76 141 75
68.9724 68.949 43.7945 104 87 105
68.5426 69.6267 42.8323 102 84 100
103.505 57.8392 81.4729 174 78 62
103.08 54.9616 62.8556 102 193 126
94.4262 58.0323 78.9345 183 80 65
95.2514 57.9914 78.6793 181 80 60
94.7946 58.4637 77.2304 185 84 66
102.236 53.4895 51.6324 61 108 54
110.133 59.498 87.4294 160 71 55
111.553 61.9191 56.3836 73 148 89
102.612 54.1643 61.7568 103 176 121
95.2464 57.5481 78.756 181 80 60
94.6929 58.9574 78.2141 182 83 60
100.234 50.1037 54.6925 109 197 137
85.9982 47.8786 58.4115 241 68 148
89.2153 57.9706 69.5822 92 176 101
97.9949 58.8808 84.2169 185 83 61
95.443 58.5015 78.62 185 80 61
109.061 60.4241 22.0159 47 74 43
105.787 57.967 67.2735 81 161 102
102.717 53.7978 45.63 61 112 55
74.1716 69.2814 53.3946 115 49 85
113.376 61.9825 67.4646 80 131 75
97.3795 58.345 78.7102 183 82 62
50.7903 98.4042 19.4864 86 85 99
103.433 53.2329 49.707 91 150 94
139.01 95.3724 3.06001 221 207 196
140.825 97.9332 4.62624 226 213 205
113.976 71.1502 5.10383 202 183 177
127.367 83.526 5.25062 211 191 190
123.172 79.4796 9.32817 217 203 200
133.682 102.085 2.71596 228 181 17
134.152 88.064 6.74738 223 210 204
125.06 81.7282 6.62502 212 197 192
127.637 126.733 18.6517 189 138 10
116.421 80.2835 1.88753 30 24 24
112.034 68.08 3.88126 206 189 182
137.445 98.0886 1.90404 225 209 193
131.193 109.207 10.2411 72 61 55
126.093 118.165 13.2273 207 148 48
133.824 90.7223 4.47415 15 22 6
70.0067 77.2816 19.4459 234 72 145
125.946 117.713 13.894 208 150 50
78.6282 65.5383 18.9861 232 55 127
131.405 89.6326 3.38406 51 70 42
112.522 65.718 5.055 217 206 204
106.239 67.1799 1.2188 5 8 0
128.653 114.323 13.6565 204 141 38
113.03 67.1228 8.16247 219 208 206
128.144 118.598 14.8058 207 156 49
125.568 80.1257 10.1351 218 204 203
67.8359 76.6208 21.4912 235 67 142
66.6571 93.8684 18.8301 188 247 227
67.8019 93.7913 19.4355 176 237 203
127.126 131.139 22.6072 77 70 78
130.697 91.6438 3.02028 59 96 45
106.112 66.7547 1.82507 37 55 29
67.8167 93.4668 19.9739 176 237 203
67.7865 94.1276 19.2547 149 215 177
123.582 108.011 9.77222 205 147 50
126.697 88.0116 2.25533 32 40 25
134.641 88.7506 9.02469 225 214 208
130.601 103.669 2.5167 73 88 19
134.915 101.115 3.16938 224 181 16
137.817 92.2717 7.99006 227 214 208
108.745 63.2827 1.67922 50 40 41
109.224 68.0697 1.40278 34 35 29
108.681 63.0901 1.5714 56 46 47
53.5669 114.792 16.7798 88 69 71
108.108 64.5456 2.33637 43 34 35
53.7984 118.949 15.254 175 134 130
131.888 105.63 6.64394 232 194 31
132.302 83.0028 11.6671 222 211 209
122.77 108.614 10.2679 200 145 42
128.952 86.8767 5.53568 179 159 150
129.068 87.1461 6.48705 190 172 162
70.9259 95.6049 18.0335 133 208 151
137.947 87.4428 7.62581 75 64 62
120.798 82.7111 3.2496 35 31 30
121.179 83.7166 4.86181 31 30 26
135.068 101.497 1.47977 227 179 17
103.455 90.3526 8.02572 87 143 94
126.505 133.839 23.314 78 74 71
104.098 91.1372 6.38758 84 149 91
130.378 115.046 13.934 79 67 67
103.979 90.6163 7.47155 75 138 83
128.563 106.41 7.28555 235 196 31
126.717 79.0253 12.0297 159 147 149
108.595 90.1628 6.56609 83 155 92
128.306 105.716 8.27886 232 194 31
112.874 76.4452 2.20218 35 26 27
125.843 80.1344 8.20373 215 201 200
127.184 85.7333 4.9274 164 144 135
133.71 105.86 4.94674 233 196 30
129.707 101.387 6.49129 38 68 6
132.73 96.788 2.3643 75 105 43
129.802 101.629 6.8029 66 96 26
128.352 104.32 5.90634 79 103 15
105.446 101.75 11.5652 96 54 42
125.063 127.703 21.8842 216 162 36
129.204 78.4432 9.01335 223 213 214
99.4216 89.2417 6.48937 88 160 97
97.667 98.7075 11.8905 106 92 65
99.6924 88.2201 6.87105 89 163 100
130.166 89.131 3.0296 15 17 6
129.492 106.91 8.4807 70 54 57
104.635 95.8168 11.4728 40 62 26
129.161 80.7963 10.0488 220 208 208
115.855 68.1272 9.61635 221 211 212
112.608 105.725 9.62229 196 145 64
127.341 129.879 19.8486 80 61 47
106.282 99.0042 11.0955 92 147 90
97.7076 86.8416 10.6707 46 95 40
94.9138 72.9029 8.47132 68 138 68
142.732 95.8298 6.47026 228 215 207
78.6369 71.0653 18.7021 225 58 127
102.256 129.257 20.441 136 44 19
96.6119 86.5898 7.23644 52 103 46
139.78 96.0025 5.6535 222 208 199
97.7984 87.3304 10.3224 38 85 33
74.6442 73.9987 18.1591 61 65 66
78.6222 70.712 20.3737 226 60 126
140.418 93.5207 5.28192 227 212 205
78.6491 71.3574 19.0617 225 59 125
69.0286 91.2393 18.3485 118 188 125
111.935 102.877 6.96204 95 159 83
140.142 87.3489 15.087 71 61 62
58.4526 108.957 16.1852 49 20 25
137.471 101.439 5.1503 72 62 61
130.073 82.8518 8.44532 215 201 198
135.002 93.3371 2.8336 71 109 50
108.48 134.046 20.8356 153 58 14
99.4291 98.5223 11.6091 49 65 28
78.6907 72.3559 16.6167 224 55 124
93.0543 88.2093 11.0612 66 108 60
76.1833 96.5487 14.5791 112 189 117
99.3649 101.428 13.1256 147 66 47
125.42 128.881 20.0004 213 162 35
99.6792 99.8922 9.45862 51 58 24
109.203 99.4123 11.1235 88 150 85
109.19 100.582 11.1206 98 159 89
72.9928 98.427 18.8691 165 72 57
57.134 111.133 16.5681 41 30 36
111.912 108.012 8.78094 205 143 84
105.131 104.921 12.9036 125 54 36
76.1542 94.7443 17.0111 110 192 118
121.594 126.733 19.5416 213 163 42
123.216 127.203 21.7813 217 166 41
102.17 87.8996 6.66027 57 90 43
91.6738 90.1905 12.1311 76 136 74
102.355 65.5119 3.70518 55 107 45
129.193 90.5022 2.63731 60 93 46
100.542 67.159 2.47424 93 168 101
89.9034 98.2126 14.7991 154 67 50
102.291 65.272 3.23947 56 108 46
84.6797 100.147 14.0419 159 66 49
99.0942 61.6433 3.30911 60 111 52
92.9667 88.9209 11.7626 71 122 66
128.114 103.683 6.4034 88 122 45
55.314 133.208 16.5788 179 80 59
88.6302 78.1843 13.9309 59 120 63
84.6791 98.9292 14.1725 160 67 52
129.048 90.4295 2.94941 58 86 46
101.936 62.0246 2.61967 63 132 65
125.283 105.327 6.43586 100 138 61
109.883 77.508 2.14082 50 81 39
135.499 107.576 8.62397 75 64 58
110.04 78.0258 1.71491 51 82 40
112.779 128.44 19.484 171 98 21
110.043 78.0378 2.7911 49 80 38
86.2384 97.863 14.8975 158 70 56
109.924 85.4793 4.33826 50 87 43
121.476 97.2099 6.77248 58 105 50
103.546 78.5653 6.31128 63 111 53
100.613 101.743 11.1081 139 60 45
88.6676 100.28 11.5524 157 70 51
103.813 79.6441 4.44961 61 101 48
105.32 101.179 11.4699 124 66 55
52.5889 129.442 13.1071 180 79 59
85.8442 87.2317 14.6728 72 134 69
113.009 87.6386 2.78888 75 144 87
122.725 104.717 6.98684 96 140 63
134.159 108.389 6.36809 69 46 15
123.793 125.54 19.6584 215 165 40
100.235 99.7175 13.7664 148 65 51
124.774 95.4361 2.47545 75 119 58
124.72 95.2925 2.71285 74 118 57
113.406 88.868 2.83118 81 151 89
101.605 81.4305 7.83608 72 149 79
112.672 86.5268 4.72817 75 143 86
117.103 84.0807 2.63888 48 87 42
116.653 80.9455 2.83185 28 24 23
117.327 84.7321 2.6189 48 87 42
82.4782 98.4604 15.0118 164 75 59
78.0288 100.634 16.0193 170 73 54
88.7838 79.432 12.6024 56 117 60
77.1022 100.639 15.2554 170 71 52
110.258 99.1475 6.15373 64 108 59
81.2648 87.889 15.0904 90 162 89
118.386 100.487 5.07159 71 125 63
108.449 96.5797 10.422 56 89 46
81.7672 108.899 14.7205 163 68 50
77.0764 99.4747 17.0708 173 74 55
109.092 137.139 21.7905 192 118 19
117.391 132.137 23.6266 215 163 43
108.816 82.3554 2.74463 41 72 31
77.5654 71.5215 16.9946 216 72 131
121.726 131.517 21.0249 207 150 21
117.421 101.029 7.47679 90 150 78
118.562 104.76 8.03162 96 155 71
112.422 61.2496 9.36332 65 55 63
80.9566 90.1088 13.3113 91 161 89
109.199 58.0626 5.63601 42 35 42
94.392 74.861 11.1133 95 174 109
68.6779 99.8926 19.4257 161 71 63
85.6367 94.3789 16.0553 77 142 74
109.499 129.502 20.2817 145 50 22
94.351 74.6286 11.8004 106 184 122
127.227 97.1249 2.78234 62 104 41
116.265 100.699 5.51078 72 128 65
116.146 96.2288 5.43152 75 122 67
111.207 100.119 11.0481 96 157 87
115.11 95.8401 7.18269 74 121 66
116.354 96.9038 4.28607 76 123 68
98.5903 96.1222 11.0317 45 77 36
143.737 84.4168 16.8135 75 64 68
118.565 104.771 7.41876 95 152 75
125.448 103.863 6.57364 95 131 59
90.0271 89.686 12.7353 65 123 62
115.239 96.2714 6.21035 78 125 70
108.034 82.5223 2.51361 47 80 37
107.972 81.21 2.98249 53 86 39
78.0367 100.908 15.4968 169 72 53
108.537 94.9142 9.84098 69 105 57
127.513 99.6717 2.34317 72 117 50
122.538 95.5969 5.70489 72 117 58
116.045 105.113 7.8667 100 164 80
112.973 134.378 19.8285 194 123 19
125.12 102.939 8.2261 85 134 55
78.1012 85.6235 16.8082 89 165 90
117.186 103.789 8.54925 95 156 78
88.2408 100.58 12.541 158 67 48
118.28 103.838 8.70685 94 152 75
85.9988 100.527 13.6688 165 70 52
118.003 132.986 21.9386 214 162 44
87.3492 90.391 13.2552 89 151 86
117.584 132.908 22.1101 216 161 44
126.527 92.9283 2.61845 60 104 43
61.7619 135.762 15.2033 172 76 52
80.1531 104.144 17.2328 167 70 53
119.393 110.033 13.2825 184 115 22
64.1073 114.29 37.2104 131 209 149
50.9048 131.688 28.402 250 239 175
40.3831 140.703 29.3547 255 239 161
92.5094 90.3728 39.5751 80 153 80
83.9563 88.4072 46.0794 155 215 179
59.6449 121.985 34.2098 85 79 81
77.1758 94.8014 45.6118 229 55 127
76.609 95.0544 46.4838 229 57 129
74.0524 94.8338 47.8571 228 59 128
80.1481 94.4424 43.5082 227 58 127
56.445 122.641 33.9077 53 101 137
50.6112 123.578 36.7054 17 182 227
64.5486 118.691 33.191 136 214 154
42.5997 136.372 28.4087 249 210 27
56.3266 132.335 27.8706 217 122 92
39.0192 145.055 26.2827 241 206 16
40.4169 144.134 23.7532 241 208 17
62.6737 159.455 11.1098 232 194 59
113.212 84.875 31.4873 176 153 147
62.7735 159.366 11.1295 232 194 59
106.02 81.0728 39.0872 35 26 31
76.9951 158.107 5.84724 233 183 50
77.3357 159.214 7.7447 228 177 60
48.0499 160.249 14.1222 255 242 81
103.689 80.5893 44.0682 28 36 21
78.4517 158.106 6.01891 226 178 50
69.2211 159.184 8.12263 230 183 41
104.165 80.3892 42.5259 24 30 18
90.6145 158.268 4.79791 228 189 52
85.3015 158.481 6.10886 222 172 37
47.8857 160.38 14.9128 246 217 35
78.1973 158.611 8.00023 224 168 59
84.0122 160.215 7.40356 229 177 41
108.129 104.899 24.1184 68 143 76
96.9371 78.4555 48.4211 97 176 119
109.221 104.493 23.5877 70 145 80
50.456 159.87 12.607 244 217 26
58.642 112.894 40.4414 149 221 173
41.2747 153.108 19.0589 242 208 13
105.956 105.883 25.4603 70 139 76
54.4239 126.054 30.8792 89 87 92
75.6708 164.108 7.50181 240 208 47
80.542 159.327 6.36913 224 171 29
56.0725 129.354 29.889 222 136 101
71.8575 162.848 7.33608 227 173 2
88.4327 162.09 4.03614 218 174 7
95.8107 159.329 4.48133 225 180 27
96.5156 78.6114 48.1234 91 172 105
85.0088 158.791 7.40264 223 161 48
59.4084 105.496 43.3413 240 72 147
90.4972 108.249 30.8353 63 118 61
91.8976 107.365 28.2205 61 116 61
94.1804 158.263 4.48483 223 182 30
82.8189 162.803 5.44185 230 191 26
59.0838 160.779 9.06178 236 193 1
76.4352 163.328 5.77844 242 216 61
81.3855 161.465 4.7154 233 195 26
101.806 116.732 19.6021 43 18 22
51.6736 128.043 30.6764 79 78 84
94.6067 113.853 24.9184 166 73 56
91.4213 160.251 5.02291 229 198 48
61.5546 109.429 39.9011 149 221 173
84.6939 161.007 6.11255 229 182 32
87.3382 111.245 27.2195 79 139 79
92.1512 96.4358 35.0987 84 166 90
73.9933 160.798 6.36226 225 168 3
88.1758 111.395 27.7788 87 140 84
87.1717 110.602 27.5091 74 134 74
58.5506 107.805 41.7021 243 76 146
114.208 73.1208 44.3274 75 65 73
94.9673 104.568 28.8506 52 123 57
82.4305 157.112 5.93651 201 110 31
57.36 106.456 45.2124 239 75 148
82.4805 93.9371 43.7041 78 40 55
87.1664 160.988 4.7224 226 173 17
92.1719 92.5576 40.2676 87 167 96
90.9581 114.137 24.9365 165 74 55
67.9366 101.641 44.5709 107 144 100
56.5607 111.149 43.7121 234 77 148
91.4133 103.785 31.5874 124 195 137
37.2615 152.912 21.1355 251 223 38
66.311 118.303 33.3865 132 207 140
65.847 107.541 40.2537 150 215 175
72.3495 114.824 30.2048 115 192 122
39.8149 153.66 18.7225 248 219 31
94.8755 160.431 5.13928 229 193 45
67.0341 117.876 32.5163 132 208 143
89.248 110.701 25.6036 99 150 94
36.6086 148.981 22.5161 236 208 11
92.8235 120.956 22.0992 167 70 53
97.4482 102.967 29.3106 121 180 126
93.2613 159.637 3.87138 232 198 47
88.2604 110.917 29.6842 90 152 89
40.1613 153.411 17.8776 251 222 34
88.5945 114.385 25.3686 169 67 52
99.5826 110.69 24.0599 39 73 36
89.8239 110.425 29.0538 93 162 97
88.6855 160.988 4.52941 224 181 25
81.9244 162.278 6.86812 226 180 22
98.447 113.369 21.6871 163 74 56
87.364 114.037 25.4054 166 71 51
86.2736 114.106 25.2908 170 73 56
82.6796 114.892 28.5458 94 74 39
94.7797 99.0246 34.8109 57 104 49
80.4801 115.104 26.6146 177 78 59
82.8191 113.359 26.8281 108 141 88
94.0985 104.21 31.2518 63 140 68
77.8679 115.963 27.6818 177 75 61
85.255 114.779 26.9359 170 75 57
87.821 160.268 3.43768 225 172 14
81.8177 116.103 28.4499 175 80 62
90.3387 110.5 25.5894 91 144 88
77.2535 115.926 27.1771 173 78 60
40.7557 150.586 21.8532 239 196 4
98.4845 113.342 22.3082 160 74 57
108.931 94.4066 29.1528 44 79 37
97.5809 114.007 23.251 165 72 57
51.3333 138.716 23.45 248 191 114
109.477 99.0022 27.7227 40 64 32
71.7101 115.202 31.8323 118 199 130
77.7604 111.725 33.2628 95 165 95
92.9011 96.2913 36.9162 68 138 66
95.7232 113.606 23.7057 164 71 54
80.6853 162.199 6.75223 228 185 20
88.9735 103.307 31.5737 106 159 113
84.8883 162.012 5.58398 229 184 23
78.2162 113.114 29.6171 73 143 73
107.505 86.9374 33.9175 58 96 47
56.1004 160.707 9.81465 239 201 6
110.36 98.4169 25.22 55 101 52
68.9795 116.078 31.3942 127 202 133
77.2736 112.014 34.1781 93 163 93
99.0908 96.5417 31.8889 109 189 128
72.7087 114.771 31.2945 107 187 118
57.1262 161.131 9.96506 239 199 5
97.1255 103.168 28.7068 59 109 58
92.8968 124.019 19.5619 164 68 52
48.0026 157.271 14.6923 236 195 7
90.1091 110.649 26.6429 75 133 74
110.243 99.1153 24.2273 64 132 71
110.166 93.4449 29.2564 41 71 35
66.2034 116.171 32.3159 144 212 161
95.4592 126.056 18.3871 169 72 55
89.7661 146.515 8.50619 206 107 65
46.077 137.857 28.7265 232 192 16
43.606 155.203 16.3532 239 195 10
54.0969 152.971 14.2598 231 157 108
46.0047 147.923 22.9694 238 198 15
92.0227 120.971 20.1381 165 70 52
105.89 105.93 25.0491 71 137 75
69.4344 118.146 30.4394 185 220 164
86.4599 98.8223 72.6402 159 142 135
56.0051 142.469 123.246 80 148 89
130.844 88.8116 26.06 77 149 86
87.1608 83.4544 76.9021 61 51 59
24.6995 143.414 110.254 120 190 138
107.744 62.2641 45.8041 235 230 234
142.27 86.7298 45.2184 123 51 37
95.4548 109.033 62.697 56 97 55
86.5671 149.286 43.7357 131 43 21
86.3377 159.406 29.2416 227 193 67
97.9666 106.638 58.862 41 68 37
69.0357 118.263 96.8194 34 66 29
129.015 74.5377 7.18244 217 206 204
128.147 75.7491 3.82747 215 201 200
128.843 75.8943 5.31888 216 202 201
112.552 66.7777 3.14979 209 194 191
123.555 71.7704 2.68275 220 206 205
122.433 71.5082 1.2505 215 201 200
122.238 71.4626 1.02405 215 201 200
139.411 93.8316 11.1471 50 59 32
121.445 77.801 3.3628 39 33 35
138.879 97.2277 12.3419 218 166 18
99.1616 72.8049 0.373563 151 219 172
131.478 103.109 11.8229 56 79 23
131.339 103.113 12.0072 56 78 29
100.884 119.566 35.6591 197 137 27
92.0897 126.993 47.7479 204 144 30
103.057 92.3298 3.18401 130 175 134
63.9362 79.1018 12.8378 81 67 84
109.424 68.6335 1.80018 31 30 28
108.93 68.485 1.83738 37 31 35
105.149 91.5789 1.37388 113 175 126
108.617 68.412 2.39488 37 31 35
94.2565 62.8861 8.15715 106 180 121
86.4059 80.5642 4.28727 190 228 203
67.9393 89.446 12.6934 140 148 107
87.5066 105.809 22.0593 141 55 38
75.734 92.2213 10.0402 53 31 33
67.9003 89.4437 12.7616 131 148 106
133.739 89.1814 9.27518 63 108 51
112.993 100.905 9.80697 211 163 61
66.1251 89.3396 13.1719 115 153 106
74.4932 92.5033 9.97743 52 34 34
106.892 63.1414 9.89923 235 225 226
57.7659 118.26 37.4694 155 57 32
113.386 93.4755 3.58101 67 126 62
66.8617 95.09 13.9351 68 38 40
66.8149 95.0888 15.3022 63 42 41
43.7926 106.474 28.7464 188 85 66
54.6678 89.4139 20.2201 87 75 89
77.5557 123.304 45.6828 226 184 63
112.13 69.1233 2.8862 202 182 181
130.858 85.6626 9.04786 50 85 43
50.2187 92.8479 22.915 98 71 88
54.6895 91.4526 20.0308 88 76 90
51.5412 91.2897 21.3691 90 76 91
113.946 69.5472 1.68535 182 163 159
50.2617 131.908 60.8917 153 58 30
119.652 74.1137 5.34848 38 34 35
108.035 82.6035 2.40526 50 87 43
54.4053 94.615 21.473 185 82 67
99.7914 83.2347 1.97578 140 192 153
116.096 65.4655 3.91347 222 212 211
49.7828 93.7701 22.2055 156 89 107
91.6995 62.0866 7.74583 83 77 91
124.597 109.906 18.6881 69 112 43
73.823 119.245 41.3611 151 60 29
63.9216 124.41 46.5801 148 52 28
92.2187 86.1256 4.20228 54 103 47
96.1081 63.9095 6.63149 65 129 69
119.251 85.6501 5.99043 76 137 78
123.637 109.988 19.6725 71 121 52
100.403 79.6212 2.81596 147 208 167
96.7897 84.2271 1.03612 58 93 51
100.111 78.2844 2.05464 136 199 154
118.466 72.0541 0.974667 199 179 178
97.5268 78.5275 0.670246 77 125 75
107.132 115.002 27.0646 201 133 22
112.273 100.912 9.40492 212 163 60
108.473 66.3087 4.05882 48 37 41
116.328 85.2171 5.61341 87 157 97
97.9589 78.5904 1.86632 69 115 66
81.7492 137.365 69.2849 202 146 33
119.249 74.0303 5.64385 45 35 36
60.3921 92.9354 16.6242 185 82 67
78.1311 92.3286 8.57922 44 30 29
68.8279 129.524 55.1449 214 157 26
113.803 113.623 23.5064 112 156 77
90.5609 63.0761 4.7404 229 81 141
99.3098 65.9742 5.17807 87 157 94
97.4715 76.5293 0.528189 101 151 98
114.906 113.453 24.1644 107 148 70
90.6384 127.255 50.8442 203 146 30
114.64 66.794 4.35255 219 207 207
98.0103 77.8789 1.90331 72 118 69
98.0001 77.1409 1.7784 77 123 74
97.7475 76.5732 1.12565 77 121 68
96.9116 83.459 0.630445 60 98 59
100.864 67.3422 2.92847 59 117 58
102.021 67.6055 0.140145 65 131 67
97.9189 77.8651 1.69141 72 118 69
97.6796 76.1435 0.877896 94 142 90
90.328 72.8487 1.51168 182 238 209
100.493 66.2516 2.16752 89 161 98
97.0247 67.245 5.0511 58 107 60
97.1906 68.8146 3.48789 60 112 64
96.3485 85.1178 1.26227 34 76 28
119.786 71.8524 1.32652 207 189 187
97.5972 79.0793 0.959414 99 149 100
97.4159 74.1604 0.673968 56 103 49
97.4798 75.0867 0.552891 83 131 81
97.8228 73.427 0.418572 65 118 62
90.8935 66.5507 2.04623 228 135 164
109.601 119.484 33.6089 184 143 53
56.8637 94.6815 19.9365 187 84 69
98.7671 69.1483 0.367158 66 120 70
94.4385 66.728 2.92671 77 143 82
98.0228 79.9448 1.90928 93 136 91
91.2837 119.153 37.9684 200 138 15
101.878 79.1727 0.919189 65 132 65
100.514 90.0411 3.44343 60 91 49
97.4962 74.6593 0.540784 90 140 87
97.1686 73.3086 1.07963 62 112 59
113.378 66.4709 6.10573 218 206 206
97.9228 73.6742 0.699915 83 138 81
118.685 89.7779 5.41654 75 130 73
100.793 82.0227 1.07016 82 159 89
93.082 116.277 34.5563 205 147 22
102.309 79.4984 2.5928 79 149 79
101.781 115.455 30.3921 204 145 29
100.238 66.2449 5.27669 59 114 57
48.9238 91.8624 21.7819 85 73 85
100.599 82.5416 1.28345 83 163 90
79.0361 86.2328 7.7412 114 140 93
90.6071 121.224 39.2957 197 135 16
107.749 108.864 19.0216 199 136 23
106.839 108.925 21.2784 201 139 26
101.523 80.7758 2.44341 80 160 87
89.3221 131.913 58.0718 198 141 34
81.0317 137.533 70.5354 202 146 33
98.0063 80.4744 1.73528 77 120 74
105.578 100.333 9.60331 183 120 41
100.666 83.3331 1.55894 80 162 88
97.6392 72.0193 0.714784 57 114 59
69.614 89.9407 12.2135 137 128 89
97.2733 73.3276 0.989178 75 130 75
82.1065 76.3214 5.5558 237 78 145
97.0037 71.8984 2.16663 67 128 69
101.297 65.2562 4.77059 52 93 49
128.267 92.1007 8.65422 70 118 60
109.088 72.969 0.731431 46 83 42
98.1373 81.249 2.11549 73 116 70
101.022 79.3137 0.912121 84 161 91
95.9672 95.9766 8.23922 135 57 44
108.73 107.517 20.1964 199 137 24
97.504 70.3277 1.58166 47 101 49
93.4324 66.5049 5.53773 80 144 83
108.711 105.865 13.6136 208 152 39
98.2114 71.0135 0.413682 51 104 50
110.984 97.5916 7.8691 200 144 51
101.966 115.765 32.93 195 135 21
116.006 108.089 16.7627 87 146 66
113.932 109.823 20.8897 86 148 65
107.664 109.36 21.7097 195 132 19
102.783 115.672 31.1996 193 133 19
98.7801 119.859 38.9148 198 138 26
110.391 73.2289 3.25015 49 85 47
105.552 70.2324 0.791247 44 75 41
121.587 91.2255 7.39935 66 116 55
119.016 84.7177 5.83054 73 134 75
108.349 74.9086 1.03028 47 86 42
110.401 73.2309 1.077 45 81 43
108.181 74.8777 1.42746 48 87 43
133.068 88.4243 8.35124 61 106 51
80.9187 135.616 68.728 204 148 35
98.0624 115.911 32.0532 212 154 31
97.4091 75.7765 0.74463 87 137 88
96.0385 125.001 49.2192 199 138 31
49.2202 101.416 25.7221 186 83 66
120.394 79.6377 6.05658 33 27 29
125.017 76.7788 7.66483 46 40 42
123.784 107.892 14.887 77 127 58
97.6357 92.8162 4.28591 140 61 48
83.0028 129.045 55.7856 201 140 25
