-71.7651 101.623 177.408
73.3148 50.1939 128.734
-191.358 71.1082 455.815
-149.791 91.3434 355.452
-25.017 115.201 65.9031
52.2997 122.219 128.276
-133.268 104.676 314.423
-29.0542 88.7071 82.4514
-259.124 99.421 610.117
-23.1923 76.5151 69.9232
164.744 22.8324 355.018
-140.194 111.929 331.322
-61.199 83.9812 152.026
194.273 256.869 540.549
-130.936 100.93 316.135
-61.297 106.808 139.644
-702.231 83.1573 1784.25
-48.1971 103.024 184.841
-949.906 -364.155 1281
-1.48994 100.608 131.838
-48.7502 79.2917 188.748
-52.428 76.8834 193.326
-611.146 -174.547 870.404
1049.02 574.366 1145.25
628.634 352.019 629.078
227.064 217.959 150.193
6.21653 96.9024 122.667
-1317.95 -384.908 1717.09
241.131 226.178 169.528
26.7563 100.671 97.9142
39.3839 99.2381 83.6972
-43.5007 72.4252 182.946
-57.551 74.9793 198.395
356.381 265.221 313.915
26.471 89.5105 98.5654
127.456 170.277 87.8913
156.309 174.51 98.173
5.63357 84.3291 123.17
13.9242 81.8203 113.987
-56.9064 74.0204 197.153
-60.0614 72.2632 201.029
223.232 191.399 151.1
-20.1697 87.3179 151.397
-47.5921 65.04 187.677
187.237 163.147 109.011
3432.97 741.507 4009.04
-20.1622 88.1129 150.779
126.534 149.347 88.3089
99.581 128.851 77.4774
-1591.06 -168.982 2049.74
1619.35 305.007 1824.42
-25.695 82.5295 157.42
-25.505 82.0826 157.285
-31.161 77.4757 164.871
-226.674 42.7107 402.676
-343.839 -28.1536 556.406
192.771 138.019 114.184
-246.265 39.6956 427.637
-448.007 -60.8589 688.453
197.103 141.447 121.041
2454.02 218.284 2826.12
-45.9255 82.2449 180.435
14.2964 62.6827 112.543
-31.3174 71.7941 164.863
-323.389 1.32674 529.365
95.703 111.912 76.9018
-362.561 -20.8328 581.747
-237.97 53.6788 416.654
5.2589 110.2 112.301
-10.9716 100.923 133.74
-1.06812 101.595 121.41
-31.8636 71.1024 164.785
-13.8834 57.9171 145.769
-6.84335 54.3452 137.905
-404.904 -20.6153 635.722
-407.003 -19.4233 638.706
100.054 95.8426 79.2414
-444.221 -11.9642 683.188
-3.60184 101.219 123.192
-9.8129 93.3251 132.385
430.559 42.5096 395.225
-54.9056 75.6988 190.792
-37.9665 67.6101 171.752
-44.1877 65.9873 179.691
-588.556 -22.412 866.074
85.6431 83.2159 74.7795
833.078 -2.58687 885.897
-16.9426 50.8253 148.779
-23.8871 87.803 149.365
-68.785 67.5289 208.963
-60.3466 69.836 197.948
429.707 261.101 448.829
-714.743 -10.5225 1026.96
-20.1823 86.04 144.314
-59.9551 69.6813 197.161
-1087.49 -92.8541 1510.39
54.8176 73.2576 63.9251
197.32 24.7777 115.799
-858.83 -367.28 1287.88
275.127 186.162 247.845
260.599 178.346 227.992
-314.737 80.9318 513.982
-29.848 82.0835 155.982
32.6659 64.8693 81.0621
-887.438 -385.714 1335.4
-3194.62 -276.101 4241.85
-1082.05 -4.5064 1506.9
-361.78 96.0823 572.734
-184.19 69.9559 353.412
68.4198 113.943 75.1778
-35.706 76.4828 163.428
-40.0186 72.8129 169.509
-329.17 -13.5673 557.216
-266.926 36.7763 466.867
-4637.17 -47.4863 6075.34
-186.111 73.8923 355.891
1939.68 194.467 2396.73
-13.8655 61.0658 137.81
703.742 70.0386 786.614
-59.1719 75.967 192.394
-368.664 -14.1389 611.391
-374.48 -14.0636 618.884
-880.283 -184.017 1311.72
49.9844 99.2756 69.3726
1996.92 12.3079 2456.42
428.1 42.4948 432.948
-27.6489 94.0486 147.015
-58.4962 74.7623 191.267
-34.6913 57.5604 164.102
-33.4025 57.2708 162.291
-62.3556 72.5988 196.442
-252.295 15.3516 457.124
-420.769 -13.0516 683.564
-426.021 -11.7152 690.136
-1377.45 -268.82 1994.95
430.541 40.9464 443.61
718.187 3.44201 812.746
-22.6564 50.9751 148.762
174.018 196.005 142.257
-31.9075 88.1879 152.424
-61.1841 71.8235 194.547
-64.3318 70.107 199.066
-508.81 -9.67429 803.503
163.076 50.3863 118.064
-55.9957 64.3651 188.868
-1284.29 -141.637 1864.53
156.083 28.2561 113.788
176.451 25.0817 123.201
113.437 154.121 106.096
192.551 174.115 169.246
96.3604 43.5592 90.7655
-180.951 62.3994 355.958
-310.498 79.4813 525.898
60.0988 127.525 81.202
-42.9499 77.8302 167.322
-209.906 42.6682 399.621
-10.4231 65.5346 126.137
57.8949 127.197 81.4573
-238.592 33.5404 441.471
-57.0746 82.527 184.491
-238.267 32.5344 441.777
62.048 38.7242 77.3151
25.266 41.9995 81.313
-341.2 94.2588 569.404
-187.212 71.0567 364.478
8.1223 99.3543 90.4301
-51.0448 74.1416 177.278
24.4101 100.05 67.5519
-54.2265 70.7447 182.246
-33.0113 60.2168 155.303
-245.545 39.3686 453.452
-268.158 43.4459 483.778
38.3491 97.7132 73.9899
-287.433 33.3201 513.495
-504.735 120.119 794.749
-1260.74 245.882 1813.99
18.5948 33.1887 89.1679
-55.3587 70.6839 182.997
-2.3886 89.53 104.795
-57.8975 67.946 186.948
-257.997 45.7293 471.443
-244.774 52.4818 451.77
-283.183 52.5513 505.542
-45.4646 59.624 170.736
5935.3 -1154.55 7961.9
131.864 189.936 131.735
563.517 267.558 742.283
595.074 270.947 787.809
-4.86224 80.457 107.422
-5.225 79.6691 108.122
-298.684 61.7198 528.819
34.0154 59.4203 72.7648
34.0684 58.272 72.695
-312.619 61.0135 550.807
63.5676 149.49 97.2791
36.2715 126.743 81.2937
-46.7016 82.2511 165.065
-52.1165 78.948 173.239
-463.091 -163.993 825.653
327.228 170.618 398.982
322.81 166.182 391.511
199.521 121.235 203.023
202.303 119.583 206.664
-680.413 73.873 1087.93
24.5178 47.9268 70.7133
-437.093 -108.983 779.579
-44.7662 69.5043 163.7
-182.524 62.6701 366.63
4.35378 110.2 81.2287
19.771 112.365 75.3352
-21.5247 100.35 121.185
-43.0436 68.379 160.655
-282.375 13.1267 526.838
90.6239 97.1915 112.686
-47.623 64.3249 167.96
-798.924 140.779 1263.67
-336.91 3.86418 612.781
137.071 94.2474 140.588
1994.35 -181.428 2818.18
-68.3171 75.2046 195.188
-68.9623 71.7894 196.845
-22.8006 91.5726 121.932
-23.1087 90.8222 122.583
643.217 379.901 955.71
-29.6352 84.1573 133.785
-59.7224 64.8428 184.025
159.103 38.2199 153.539
-61.1563 61.6549 186.592
25.502 70.9246 81.0221
-482.02 10.6661 841.746
155.839 15.8097 153.672
-260.172 83.6097 487.43
91.8473 88.2296 126.278
34.0929 40.2124 86.4216
-51.0989 75.4242 165.758
-38.8273 69.7361 147.109
-385.913 90.2365 685.831
-63.0774 75.5279 183.131
-58.0979 72.0426 175.578
13.3272 97.9587 84.052
-49.7634 61.7422 164.597
-50.0718 61.2847 164.971
-149.815 52.0401 326.777
-47.6334 59.3757 160.842
-3838.35 665.857 6107.4
-37.5613 46.4344 147.46
-67.7231 62.6098 191.478
-35.8792 43.9154 144.474
-29.1048 81.0683 122.713
-70.0487 64.4089 193.876
-47.9935 71.4272 153.797
-20.5086 57.657 110.448
-59.4337 69.8463 171.928
-53.9572 66.8028 162.953
-61.1038 64.205 174.494
-66.2984 62.5133 182.909
-71.4741 61.216 191.194
-355.823 36.3838 482.429
-395.165 35.6429 517.626
-335.251 49.4969 463.167
-221.637 83.0629 358.276
2595.09 680.94 2219.05
1259.86 346.958 992.605
24.9578 130.017 133.214
242.138 170.043 65.8127
185.631 148.097 23.5842
271.401 157.867 90.8042
-290.693 60.819 424.596
-493.124 67.097 604.109
-750.192 44.4864 837.678
83.5733 167.264 73.5214
94.2727 162.722 64.6539
185.05 123.973 22.3715
6769.58 1666.36 6164.41
-1718.16 15.691 1714.22
88.7637 161.341 68.7767
3414.87 1026.85 3066.14
1857.81 537.799 1585.47
-350.183 63.9295 479.833
-644.363 95.7161 740.341
87.4862 108.029 77.5889
1625 504.573 1376.97
-350.038 62.1412 480.59
-593.948 94.9516 696.152
59.4517 144.855 96.4477
-11.8125 103.118 167.744
47.454 129.582 109.553
-3.45351 102.496 160.116
723.524 263.094 527.069
939.678 295.151 728.854
567.552 200.002 375.111
540.62 170.498 347.562
106.087 91.1068 61.5749
-242.465 66.6694 383.656
-326.187 74.72 458.864
-323.309 83.8678 454.775
59.6161 94.9081 102.948
637.469 209.527 445.005
60.6883 87.7745 102.89
-359.867 89.8283 488.147
-20.2288 94.9126 175.655
-1013.84 -141.938 1127.57
50.2558 123.239 105.947
49.0654 121.458 107.33
80.8456 116.728 78.815
2936.6 1064.82 2708.19
867.808 372.465 688.493
4.61876 88.1722 153.474
20.2773 85.2887 139.495
147.52 111.731 17.7181
204.834 110.667 35.2279
-641.309 -13.5769 766.986
768.186 162.865 565.079
585.991 145.549 394.683
746.141 -45.8458 512.091
-232.471 73.8237 375.084
-222.361 77.4891 365.114
-227.738 79.5551 369.767
5.56277 102.868 149.491
37.1207 101.716 120.369
15.5366 80.5835 143.837
215.957 197.73 62.1384
155.633 157.972 18.3481
572.401 234.985 400.129
128.796 111.094 33.0961
136.65 109.31 26.0718
157.969 101.161 18.3403
-904.265 -81.7365 1027.46
136.942 163.826 17.163
171.111 162.126 19.347
-1.81783 79.7415 159.551
0.069046 78.6924 157.96
-2505.79 -241.45 2553.13
276.925 82.7053 101.721
-537.861 131.724 652.178
-410.293 112.187 536.438
-236.653 87.2941 378.064
236.674 98.95 68.071
164.34 77.097 17.965
-31.6656 81.9963 186.558
170.317 162.017 18.5341
243.123 174.046 87.3499
225.752 142.215 65.7772
62.6501 94.5751 95.5912
67.7078 92.8643 91.1099
-498.084 144.455 615.34
156.231 147.479 17.623
150.61 143.889 17.2672
158.133 136.045 17.7121
246.221 142.914 86.1056
-12.4532 73.4253 169.524
16.9964 64.0732 143.258
-542.019 43.0915 675.01
4.1348 87.8128 151.205
-1112.21 -217.508 1259.66
2834.51 286.332 2564.77
269.094 63.228 96.0649
-53.9945 82.8214 206.917
905.27 395.59 756.729
135.389 130.888 18.8659
115.566 121.39 39.2798
34.3177 89.5442 121.778
-671.431 -77.9397 821.078
178.523 137.595 24.0185
181.177 136.675 26.3955
121.062 109.395 35.4271
29.6522 84.0581 126.758
28.6676 83.0894 127.858
25.4054 78.9981 131.645
120.496 60.2323 44.1164
-270.23 61.3703 416.566
152.095 121.124 16.9174
-348.842 49.4273 494.231
-304.952 60.8982 450.314
59.9185 157.857 84.4848
61.3593 150.215 84.3766
154.57 123.354 16.7037
-41.4778 87.7855 193.409
-17.549 81.6124 171.442
3764.15 1217.13 3658.1
151.953 100.638 16.4879
-945.336 124.952 1056.98
-9.9238 84.8673 163.308
308.237 190.968 161.665
703.712 266.761 556.032
-958.77 84.5891 1078.92
-629.39 95.6464 759.191
-49.4248 86.4727 200.952
2460.45 746.437 2338.95
1109.11 356.554 965.686
1309.32 20.0184 1102.89
-24.5279 98.8228 174.588
-38.5552 86.8461 190.198
-38.4816 86.3804 190.205
10.2689 70.0499 145.708
33.1968 142.334 110.922
159.756 149.079 17.3999
54.3885 102.072 97.1196
55.0935 101.034 96.6097
77.0449 99.758 75.4928
-14.9276 73.1282 169.363
-282.429 71.9603 429.735
-262.932 77.434 409.838
-281.544 80.8135 427.378
-25.3746 80.1561 178.108
-22.4369 74.8035 176.151
1865.56 -95.3284 1637.49
-24.5094 94.6665 174.581
-42.866 84.1239 194.306
234.849 143.35 87.5921
70.3943 92.3375 81.987
60.5481 132.368 84.3488
47.9237 124.582 98.061
-1522.72 309.086 1607.81
244.36 -5.76302 72.5075
-33.7402 78.099 186.012
-34.4419 75.4031 187.16
-1084.68 -226.871 1271.99
415.518 190.269 275.279
62.247 86.4036 90.0381
-2577.48 375.05 2638.15
2450.23 -284.788 2196.29
25.0839 115.093 121.333
118.41 130.223 26.3363
104.999 119.176 41.4785
-6.99796 83.2679 158.282
-30.9418 73.9809 183.529
-514.028 -29.8822 679.173
220.607 208.665 89.0239
322.568 235.773 194.697
73.4883 127.07 70.7428
67.8058 108.861 79.4984
36.3947 82.2362 115.19
-6.87303 87.6741 156.995
22.6917 78.5526 129.229
400.07 118.52 252.772
39.952 67.4812 113.797
-223.795 79.2765 373.953
-292.537 93.036 439.972
-269.123 95.8855 416.186
-18.571 81.6969 169.248
16041.5 5058.76 16713
2472.52 775.915 2436.04
134.91 108.989 14.6561
111.831 99.8291 35.8868
16.505 79.2056 134.551
24.9559 76.788 126.537
42.6647 66.3321 110.676
49.1553 155.65 88.3051
27.6605 107.908 118.076
41.3248 106.543 104.642
34.0777 102.462 112.599
289.565 191.03 158.916
570.053 246.866 449.591
81.4588 104.823 64.5117
-8.99223 79.2853 159.553
-5.3744 73.7533 156.888
-6.38953 73.1898 158.003
-330.354 50.7104 486.749
28.3656 109.352 116.523
46.6995 109.2 98.1314
0.58876 76.3127 150.17
-1173.17 -161.015 1372.08
157.096 100.112 15.1194
254.706 81.9648 106.611
385.715 69.9009 236.304
162.771 150.041 26.7624
94.8737 109.405 48.8204
-17.8334 76.9256 168.184
20.0029 65.5114 132.007
-34.4161 77.3633 184.745
-2280.57 -670.701 2587.68
464.437 224.066 345.668
1154.37 318.164 1060.06
248.568 115.394 108.287
-36.6446 96.3889 183.466
1.12973 91.9966 145.969
255.243 184.771 128.246
409.011 215.099 289.55
37.8867 95.1426 107.963
45.0347 93.3824 101.02
225.099 65.7133 76.7899
-623.444 45.4882 788.258
-1277.39 87.4856 1445.18
-1883.4 110.446 2056.75
-27.5617 75.619 177.554
-24.8956 70.9402 175.664
-386.906 62.8422 545.73
-6.51021 117.871 148.407
47.2019 106.23 95.6664
15.5683 90.5224 130.704
5.31801 86.4658 141.876
14.4919 84.5853 132.849
-38.6736 92.1833 185.655
118.439 190.692 13.0593
205.19 158.821 75.6947
16.8598 89.5117 129.206
-33.4672 73.5388 183.51
88.6641 120.183 49.7535
10.2616 90.97 135.355
22.6116 77.1272 125.138
-451.076 65.3359 613.626
-451.256 68.1072 613.319
-442.877 83.894 601.912
-580.36 97.6335 740.705
8.58273 85.5279 137.705
10.378 84.2384 136.088
38.2067 73.073 109.443
110.304 188.534 14.0944
85.292 170.658 43.0793
116.429 178.452 12.8768
7.77614 114.549 132.847
105.745 106.779 33.03
-918.098 -108.397 1130.22
1024.05 406.378 972.428
117.142 121.082 18.0369
-7.24876 81.8148 153.912
5.44627 75.1094 141.959
5.58119 73.8789 142.04
-222.869 73.3265 378.947
-378.685 95.2983 536.651
99.5629 110.696 37.4864
90.3275 101.361 48.7531
5.72987 80.0442 140.454
354.249 115.102 228.564
-794.938 113.082 967.258
-912.967 125.821 1087.75
-46.8336 84.0989 194.153
142.133 176.702 19.7325
342.836 206.768 234.511
65.9505 105.12 72.6145
-15.6668 79.722 162.325
-12.2513 78.0692 159.059
-15.1608 74.405 162.753
-967.669 -118.461 1192.37
61.0859 145.757 69.8554
1069.8 358.531 1023.75
338.678 149.259 221.172
-279.116 91.5146 435.529
88.3174 112.428 47.0925
97.1266 111.377 38.0536
45.89 94.1882 94.8329
-704.792 -53.1119 908.737
158.019 99.8059 24.0545
202.245 96.3171 69.8194
-590.497 122.667 757.058
-769.325 151.778 939.398
191.343 2.6837 41.4564
1336.87 354.865 1311.25
17.9954 114.846 119.551
167.914 112.077 37.8877
308.335 104.785 184.5
-0.152298 99.3118 141.337
-38.8687 81.1234 185.489
-31.4292 75.0938 178.736
648.482 268.995 574.984
816.182 269.721 752.289
-8016.76 -1196.53 8846.36
-312.788 97.2549 471.831
-336.375 103.51 495.612
-352.784 119.161 510.101
30.4926 87.4003 110.757
0.894073 70.0523 145.233
-507.422 19.1636 692.887
-2880.74 -164.887 3240.91
4.60591 101.818 135.173
34.4203 93.7446 105.015
37.5862 87.7619 102.749
191.738 1.79072 45.0991
-47.0947 77.5163 194.388
303.857 157.504 193.765
197.715 127.34 75.3091
141.004 107.943 13.9016
137.282 104.141 13.6878
156.24 100.051 26.1838
753.469 76.5468 657.314
-328.046 112.719 486.762
7.97151 96.4127 132.07
0.975906 63.8833 145.489
-264.65 50.7112 431.153
515.246 215.448 432.193
662.289 234.102 592.738
542.565 182.629 455.35
32.4472 80.8335 108.426
158387 13845.1 171864
-23.41 108.956 162.671
18.6786 88.5118 121.341
13.4057 82.9795 128.011
-38.9973 74.4099 185.651
-429.918 -11.8772 621.548
235.959 115.437 117.501
102795 2224.85 110713
1426.04 14.6598 1377.68
21.1372 89.0075 118.034
-889.753 -150.174 1143.71
416.93 166.617 323.06
360.126 144.542 257.758
357.296 120.864 250.322
144.955 63.0818 14.3221
161.947 47.5123 26.2244
23.5865 74.5801 117.671
-350.852 17.8389 532.639
70.6017 167.241 49.1568
269.225 153.912 163.315
26.6956 80.5346 112.8
407.382 150.535 313.01
394.625 125.135 294.455
-1481.08 92.5123 1744.35
-634.6 104.669 824.746
6.50848 72.5635 135.783
-458.341 67.9888 641.647
-579.865 97.0834 768.286
-7.29907 81.7936 148.737
-7.53038 80.9483 149.147
-13.6594 78.4834 156.278
-431.802 3.60143 625.865
-481.281 2.48466 679.999
-279.029 61.4631 448.529
-439.031 87.3831 618.059
-17.773 109.039 154.751
138.425 111.181 16.1331
-453.726 -6.75204 652.812
-22.606 110.932 159.392
-21.0604 101.522 159.469
-9.37106 107.883 145.308
-642.395 101.965 840.27
-29.205 81.9805 171.811
-15.128 77.5938 157.186
-6.60359 71.385 148.999
-7.72304 70.6278 150.371
-497.274 1.17963 701.425
-356.912 79.7497 532.315
-314.883 86.8069 484.784
-359.236 95.0506 531.982
-36.3495 100.775 175.88
67.9699 94.2501 62.2786
-843.957 -101.267 1104.22
169.707 131.078 57.5652
9.17708 113.596 122.779
-0.600204 107.271 134.788
53.5693 97.1955 76.8132
-28.4439 73.4487 171.985
-5846.75 -902.062 6798.41
-577.356 128.845 769.015
-467.442 129.658 647.178
329.685 -30.0328 204.974
-18.5155 73.6798 160.687
96.2504 28.7633 41.991
234.706 184.477 142.259
486.141 215.896 427.804
163.574 124.855 51.8023
123.327 94.3619 13.6934
-640.094 -15.834 869.412
72.9393 149.228 43.7137
37.3608 119.851 89.0001
19.173 110.531 111.062
26.6676 105.753 103.618
109.936 98.7634 12.8778
240.402 85.2753 130.784
48.0091 95.1277 81.6121
25.3999 87.0575 108.403
-29.0044 69.3936 172.534
801.216 205.399 782.024
600.832 162.92 549.812
-328.733 102.866 501.141
-381.353 128.797 555.011
-20.9577 70.5328 163.059
-46.8691 78.9593 190.374
153.513 152.677 48.9563
111.918 135.53 13.4374
170.72 124.555 62.8695
1452.61 392.553 1556.59
1450.87 296.735 1536.18
-23.0823 112.439 156.821
19.2888 111.959 109.193
32.6696 109.949 94.5108
85.1919 105.393 36.2368
133.742 75.3867 14.5771
-440.017 145.714 619.973
-16.3374 87.9827 153.806
2.02853 83.9669 133.867
-27.8145 68.3166 170.55
-336.155 19.618 528.096
-3372.61 -247.729 4009.41
-802.739 38.6543 1051.41
-23.0171 112.857 156.244
35.5652 111.362 90.0397
153.421 110.739 43.3438
1271.42 100.737 1307.84
114.05 136.285 14.2617
279.771 153.837 196.127
425.792 150.945 361.449
-1180.28 27.8425 1487.04
-1762.8 100.1 2134.74
147.18 47.7513 24.867
-412.574 4.57957 620.461
418.325 135.952 351.795
-30.4315 107.486 164.9
132.581 104.686 20.5451
32.3406 78.1561 99.0064
25.0807 72.9219 108.312
-263.556 47.8628 442.773
60.5837 169.217 48.4029
-11.8151 115.63 141.737
135.501 116.321 26.9642
318.891 119.554 237.441
808.035 22.0151 778.045
499.61 0.554974 420.93
175.546 132.438 76.9
191.533 129.052 94.5814
137.503 107.882 28.4241
-268.909 61.3261 447.34
-453.868 86.9376 654.852
58.0885 114.024 60.9367
88.8368 93.7314 29.5442
-49.7377 89.1613 189.836
-7.15605 75.4677 143.458
7.85135 70.2623 127.187
-361.889 21.7065 563.31
67.853 161.587 39.4076
30007.3 8854.46 36284.5
131.09 114.29 24.3392
89.2606 102.67 26.3066
78.5708 91.6545 40.8395
16.7819 75.2186 115.507
-272.51 51.4299 454.852
-485.882 94.2304 693.359
-445.756 110.355 643.723
109.491 99.8651 14.4489
202.108 95.667 103.787
88.5831 39.7127 38.8986
-793.531 -54.0545 1082.4
528.04 115.629 487.71
-10.4523 104.947 140.278
97.0959 103.86 15.2793
96.6941 95.8488 17.3408
98.3979 89.1933 16.6813
94.1044 86.7573 22.1647
728.838 -120.438 675.617
-46.2287 84.7616 185.856
-12.5016 70.583 149.355
-218.174 75.7304 388.311
-207.614 79.7385 375.181
-478.179 17.1043 704.274
-353.199 95.2022 542.524
-377.971 117.803 566.977
-29.703 71.8907 168.776
234.128 116.924 149.796
-13.2854 104.414 142.711
-15.8108 96.272 147.31
264.124 94.9754 181.848
24.8516 58.2827 106.733
173.702 -0.685956 56.7407
165.338 -0.482247 46.9296
-201.133 85.2245 367.643
789.82 320.803 850.324
68.1563 141.379 38.0671
-788.783 -17.2146 1083.93
2476.24 213.579 2825.5
-256.651 100.007 430.7
-40.9121 79.8631 179.425
43.4035 107.52 73.6561
43.5785 91.0462 76.7839
29.2027 86.8359 94.6937
48.7556 83.0153 72.2671
-4.55203 57.2896 140.727
24.846 110.117 94.6769
327.269 97.7493 263.457
372.767 94.8352 317.938
858.347 65.4499 891.526
-42.4052 101.073 176.22
-4.51521 96.1079 131.94
161.519 79.6108 63.1678
25.8496 51.7745 104.682
-62.555 83.6298 203.797
72.0837 131.4 32.528
123.825 137.342 30.7162
97.043 102.887 15.9841
-339.392 62.957 540.196
121.589 139.268 29.2621
-36.5423 105.7 167.626
-34.1842 102.852 165.247
10.7896 96.5153 112.311
123.191 74.9937 18.8201
399.309 36.4635 343.896
-3.2359 84.885 131.44
-3.43449 83.935 131.876
-21.4193 64.1363 157.674
-254.02 48.8312 442.006
-2035.61 117.235 2582.77
-1303.57 167.325 1687.03
-2056.75 253.37 2580.28
437.681 182.532 424.161
544.495 192.723 555.838
387.978 118.737 350.683
232.001 90.2667 155.59
-39.6594 99.527 171.668
-36.7465 97.1388 168.614
-44.5612 91.0604 179.398
-13.2567 81.0109 143.34
46.0516 66.3144 74.1255
-217.573 68.9278 394.975
-468.978 -21.274 721.195
244.448 102.414 176.373
193.779 88.1657 111.489
-1609.95 201.625 2069.11
-892.642 182.064 1196.61
-838.36 179.763 1130.75
67.3147 71.8717 46.1373
-35.3568 97.6663 166.153
-12.6528 74.6931 143.085
431.402 119.309 412.266
842.498 125.549 918.897
-48.7861 88.8327 184.268
-49.1521 88.3191 184.826
-47.9706 85.1829 184.029
-989.407 -161.346 1396.26
104.057 99.2005 17.6725
124.845 84.0126 28.8978
-346.556 33.4841 563.269
-1043.13 -7.4398 1431.83
-601.744 142.417 855.432
-498.522 145.996 727.246
425.592 111.277 408.289
237.35 88.256 170.36
263.782 -2.05138 184.066
626.807 -109.435 610.943
-52.6872 82.831 189.729
33.1711 125.973 73.7047
483.715 119.998 485.394
397.785 99.0865 374.095
-12.6415 101.899 135.605
-6.14132 66.5271 135
-198.768 80.2351 372.187
-196.285 85.3268 368.01
-437.238 25.5727 681.92
658.828 194.435 724.797
-3.64005 107.14 122.501
-3.79492 106.075 122.922
126.171 86.1554 35.7075
130.74 83.5835 40.8849
190.437 70.272 112.862
-280.209 110.286 468.707
-45.8301 79.7711 180.977
-49.2864 77.6216 185.781
-3882.13 -621.037 5159.39
-715.096 -50.318 1052.16
-496.223 29.8245 759.119
-839.916 27.9344 1192.73
-40.568 105.508 168.461
213.994 85.6725 148.644
65.1102 89.7588 38.1065
151.478 80.8159 69.173
-18.6299 93.0705 143.111
-8.27963 90.6185 130.532
23.2795 85.6065 91.6459
162.723 108.433 90.3503
1656.79 -10.7724 1959.31
66.8629 86.6127 35.581
-32.1512 67.0278 165.561
-456.02 66.8083 704.567
5409.92 -170.862 6715.65
-65.0154 83.4657 203.527
2309.3 574.549 2936.59
-651.839 26.7889 965.473
-34.922 106.047 159.952
4.0275 95.4609 112.41
29.6061 89.1343 81.0527
-315.883 65.4307 528.665
98.7121 135.284 19.5648
176.013 143.804 119.286
-469.779 68.6312 725.926
-582.489 104.302 862.813
58.4051 97.2254 41.4805
260.215 69.521 212.617
-48.481 95.0047 179.15
-9.02425 84.8525 130.491
-9.65565 83.7653 131.543
-32.2052 66.4147 164.417
-453.771 96.1571 702.129
-1185.9 245.392 1614.85
-44.4411 98.9289 172.693
2.65055 82.5729 115.293
-311.063 78.4229 522.873
-286.274 88.6403 488.475
233.95 105.346 190.618
93.3204 63.5299 19.0694
27.4288 70.2582 85.1357
-52.6094 88.5165 185.148
-304.597 22.1467 528.553
566.758 124.538 631.211
-357.193 100.597 579.835
-35.6931 96.4219 161.068
-33.3467 97.3153 157.645
126.666 111.368 55.3718
95.4318 80.8629 19.5169
3959.47 -908.516 4852.69
-0.184128 70.0467 119.874
5.78654 67.2373 112.66
-259.804 49.8088 465.486
585.805 174.782 675.517
-30.1018 100.647 151.877
-48.0013 87.6389 178.39
-813.51 -119.9 1235.71
230.177 102.316 192.42
-338.832 116.903 555.822
-22.2155 98.8653 141.526
-28.188 72.7818 155.27
-259.462 107.204 453.754
4.13691 68.4694 113.04
18.4511 63.0806 95.2583
-52.1041 81.3705 184.564
-366.378 39.5793 612.781
-278.938 114.527 479.318
-53.1727 81.2528 185.796
-865.729 -145.27 1323.29
-1640.3 -311.757 2396.53
500.451 95.1782 557.649
296.643 68.5564 279.142
41.9013 89.3813 56.4213
-20.999 65.3096 145.93
-17.8459 63.4112 141.964
361.119 93.6677 374.832
-16.6741 97.0827 132.36
-16.8325 95.9038 132.842
-5.67161 64.1111 125.051
-343.694 46.0214 585.007
-26.0958 124.579 138.428
327.257 41.7363 320.127
270.707 212.726 284.419
149.172 113.746 97.5279
-1555.55 120.448 2214.79
-67.6003 83.3806 203.6
-69.2427 81.6151 206.174
-588.978 3.5526 932.808
11.4467 51.3727 103.02
-23.954 120.194 135.062
10.0159 102.36 92.72
-6.76422 52.9932 127.082
95.2956 124.949 30.0177
-5.65728 87.1818 117.239
-197.992 68.176 385.681
-7.96464 86.4466 119.951
-301.79 78.5667 527.151
-40.2465 112.055 158.184
-53.5181 94.2519 180.689
-53.737 89.6216 182.073
354.186 178.096 403.527
-55.419 88.8011 184.366
-16.6803 78.1903 133.127
-209.343 68.6785 402.727
-407.865 112.323 668.201
-23.3588 114.434 133.33
144.583 114.299 101.154
-50.2903 93.2722 175.591
-50.3692 92.6444 175.849
101.139 111.108 40.6977
-449.261 124.588 726.458
-6350.39 1678.49 8618.74
-55.1282 84.9521 184.089
-203.743 76.2522 394.664
-64.9815 87.5692 196.935
89.8609 194.072 47.3139
60.8151 169.946 19.7982
222.512 116.629 216.976
-269.311 100.811 482.664
221.7 94.1509 211.219
171.015 86.0024 137.44
-356.016 141.517 596.208
-67.0819 85.5651 200.021
57.0648 155.43 19.1378
-37.6315 92.788 156.322
50.0379 73.8631 35.5299
-52.4384 83.4232 179.283
-52.4758 79.5707 180.264
-280.065 47.839 513.843
-24.0587 133.226 125.743
-2624.83 168.994 3863.02
-17.2497 100.164 123.542
-6.16 98.5355 107.916
316.55 41.7292 344.512
-59.5244 94.8234 185.819
-67.6904 85.6252 199.801
-69.8466 83.6839 203.329
-24.3803 89.9658 135.577
-23.7703 89.4187 134.823
4.65618 51.2761 102.824
-42.8474 75.8055 165.611
-264.936 62.8192 493.08
-257.667 75.1397 479.433
-55.9631 95.1515 179.751
-57.912 92.68 183.212
4.31017 93.4968 91.4442
28.0798 40.3782 69.3716
-70.0085 80.8259 203.518
240.495 187.813 281.104
6.45493 85.98 89.3614
-255.336 75.252 478.446
-239.183 85.3632 452.076
-33.0746 118.717 139.175
-48.172 97.771 166.725
-7.32875 82.9354 109.985
-48.2603 69.8965 173.419
-223.078 81.5642 430.719
-49.6778 97.374 168.376
6.41277 78.3798 89.4579
-7.49884 74.3446 110.767
-216.305 89.4214 419.588
-22.1578 115.299 121.975
-22.2291 114.028 122.403
-55.1641 87.852 178.202
-308.029 9.14006 579.381
-674.598 222.053 1078.3
-177.782 79.3825 365.486
-156.948 89.1527 331.481
-10.8162 115.029 103.567
380.597 119.798 490.872
-220.927 101.151 426.392
-38.9202 95.5272 150.457
30.6535 71.1656 50.5473
42.3167 61.3489 35.2671
-66.2374 90.0042 193.46
-55.976 84.0539 179.303
505.521 85.2882 680.559
-52.587 82.266 174.317
264.361 274.18 361.933
-24.5308 140.441 115.653
116.362 63.3504 81.512
286.264 288.736 403.677
-5.17856 101.92 95.278
5300.55 297.742 8168.95
-6.41778 102.481 96.5359
397.498 36.8607 512.755
232.565 39.8396 257.765
-64.6545 92.5038 189.341
-47.156 80.3874 165.314
-52.0712 78.6348 173.15
17.8773 50.3656 71.4892
-32.4904 131.698 128.338
-211.248 70.4877 424.184
391.272 265.639 572.21
-636.294 130.268 1075.7
-63.2893 94.9777 185.802
-58.5929 95.7557 178.081
-18.7848 87.7825 117.293
59.9373 34.7557 26.1521
-71.278 85.3385 200.636
22.3415 41.1047 64.4497
-71.1321 82.6378 201.041
41.1591 99.9009 24.709
-205.82 79.4477 415.449
-22.3058 129.158 110.731
-54.8611 95.5881 171.435
-11.1392 139.234 89.4724
27.4856 97.1431 38.6821
63.7003 20.4487 27.1568
-71.3336 79.8816 201.368
-209.56 90.3055 420.383
5.68853 80.4073 77.1604
-46.0724 67.1653 163.979
-8.34995 132.339 85.1999
973.326 298.593 1547.05
-59.4715 101.597 175.742
-52.118 94.6733 165.709
31.1001 73.1163 36.7751
-411.065 152.377 732.057
20.9236 73.0966 52.5953
-162.52 82.1082 348.423
-7.67367 125.056 84.1048
-7.65483 123.823 84.4108
-51.3825 112.629 158.693
-18.8661 115.084 104.583
136.719 89.3499 144.015
301.476 75.8272 411.731
-40.7215 92.3251 146.084
33.4469 61.359 32.4606
-236.446 50.8564 481.312
-65.4537 95.2454 185.432
4.11929 118.614 63.0925
37334.5 1656.58 62454.2
-56.098 82.7781 173.076
4.46335 60.9269 78.2435
73.5444 49.2373 34.0545
-69.5525 90.0502 193.26
560.203 435.302 957.791
259.635 256.409 404.528
-693.581 89.4863 1239.45
-59.954 103.377 172.935
-59.9729 102.903 173.1
-623.813 86.163 1127.94
-52.1617 80.4743 165.956
10.072 51.3305 69.0893
-73.3855 85.1872 200.274
846.612 489.206 1475.09
-218.507 73.421 449.708
-57.9848 101.108 169.389
-23.3854 144.888 97.6273
-56.3697 103.164 165.607
-581.061 123.753 1056.27
17.1039 39.336 58.2644
-52.4878 76.275 166.338
-51.4829 71.5352 165.971
-207.711 83.1757 430.699
-31.8936 134.91 113.552
-208.429 82.215 432.793
-71.6915 81.6078 197.222
51.8986 20.364 28.2565
-55.7148 69.9773 172.539
-209.121 83.0134 435.534
-38.6068 119.835 127.937
-13.4502 86.1011 93.6238
-7.70682 77.9229 85.9765
19.3039 28.2939 53.2622
-380.301 148.672 717.432
-30.0426 121.124 111.187
-35.336 114.846 122.345
-20.6165 74.7577 107.666
-210.363 95.571 437.058
-60.3378 90.3793 172.97
-21.6683 75.4678 108.812
142.067 261.204 238.008
-274.541 27.1464 573.348
-191.572 97.3918 404.449
-201.936 101.542 422.404
-60.4155 86.742 173.192
-19.1051 67.355 104.845
19.5234 61.1492 36.2113
163.635 250.515 283.318
-257.028 46.5269 540.947
-26.0386 109.119 102.688
-33.9672 101.818 119.332
-228.461 48.7132 489.769
-646.435 87.2384 1242.03
-21.5671 102.391 95.7392
20.2953 50.993 34.765
-5554.18 2497.29 9511.47
-39.5611 141.007 115.698
-235.694 64.841 501.265
253.746 240.703 460.42
-534.884 122.678 1040.31
-894.847 186.675 1688.94
-20.7273 94.0314 94.1772
-209.291 107.915 440.952
-19.3104 94.9086 90.3817
-56.97 76.1504 166.51
6.57543 40.1817 58.5879
1094.98 547.234 2151.55
1138.08 547.138 2232.72
-201.3 83.1912 435.964
-60.6503 98.7898 165.562
-389.739 136.341 778.119
-64.235 95.0565 173.079
-76.1734 79.2948 200.768
-21.0578 86.4852 93.3883
-50.7592 68.5466 155.643
-182.066 87.5993 400.109
-28.6221 130.378 92.8128
493.901 230.856 940.961
-190.54 91.6047 415.585
-63.5188 94.439 171.004
-62.0776 93.8554 168.11
-14.6952 78.5498 81.5975
36.7961 205.495 59.4909
-34.6745 122.682 104.983
-34.3204 121.703 104.611
193.248 141.018 343.481
-159.796 80.0191 361.796
3.1797 73.59 46.5448
4.05172 72.3747 45.2383
-390.558 193.023 775.195
-35.8015 114.513 108.474
-37.7521 114.521 111.536
327.218 125.504 610.875
-264.704 25.8046 588.669
5.29188 62.5537 42.5343
-64.1804 82.535 173.439
-216.425 50.5127 487.825
59.5976 189.216 110.72
1768.27 167.138 3526.9
-207.745 63.1115 467.052
-595.216 84.024 1239.71
17.2641 100.685 32.6164
-2242.99 198.595 4530.4
-60.8646 80.435 165.919
-7.3731 51.3975 67.0771
86.3849 183.672 169.537
206.745 262.553 443.873
-444.947 116.095 938.169
-438.519 118.667 925.646
-29.6325 94.9007 95.5268
-61.2529 76.1615 166.333
-63.8033 74.1203 172.299
-628.379 -241.006 1449.62
-196.682 74.9804 446.979
139.93 182.244 288.315
-1002.62 215.898 2072.41
302.395 236.042 647.429
-366.93 133.379 782.799
-488.501 174.632 1023.67
-60.1912 71.7032 164.476
-61.6146 71.9009 167.22
4.60097 27.2561 43.4428
-189.351 84.8593 431.149
410.064 216.404 882.537
-60.6915 67.3594 165.848
-306.848 141.481 662.624
-15.9455 83.7684 64.054
-167.569 94.5889 384.285
-189.478 95.8977 431.215
-175.162 98.1516 401.113
26.2279 63.1821 41.5726
-1.10241 63.5924 32.8321
-0.831387 62.1899 32.745
-190.776 62.5316 452.6
-460.644 62.0641 1056.29
28.6073 52.3007 45.1387
-535.656 89.3638 1215.06
31.6257 49.7821 46.4504
72.5164 21.7848 123.292
-191.858 68.8368 457.278
-347.867 93.8481 802.48
-302.528 97.8096 699.06
-331.576 114.346 761.567
-163.107 78.5569 389.891
-321.02 111.523 741.583
110.112 2.34904 210.317
64.0497 10.5089 107.286
-167.086 80.4459 399.828
-162.413 87.5935 387.336
-209.61 109.193 490.995
-219.506 117.222 512.564
-195.841 107.898 461.004
-217.328 117.907 508.836
-3080.06 1640.95 6731.75
5141.26 -2681.67 11189.1
-3197.17 1921.03 6952.96
-55.8805 133.197 115.135
-556.515 -76.6518 1477.55
241.245 221.543 243.811
-29.4504 85.4166 147.099
-66.7626 68.8801 200.567
-10.7254 90.5373 120.371
-22.9574 85.082 137.904
-59.8619 68.6779 191.068
-60.6115 68.656 191.993
-4191.13 -1269.72 6101.63
112.68 161.014 133.322
1124.96 390.906 1494.11
-36.092 86.2628 153.798
-40.5701 81.718 160.661
157.07 172.783 161.644
261.225 156.272 274.139
-17.901 74.2999 129.881
-39.1007 79.9368 157.799
-49.0462 77.7896 171.985
-312.59 -45.1448 565.837
100.976 137.751 129.861
286.866 127.822 310.473
53.8904 112.491 100.485
-44.3734 74.9095 164.999
-230.82 29.6935 437.231
-53.5627 73.8262 177.841
37.1526 111.613 92.0479
146.01 92.2672 154.699
33.9123 99.5956 89.3583
-49.0444 71.163 171.302
-37.1015 64.5414 155.92
-426.18 -67.8222 740.797
210.321 87.2829 204.605
-820.524 -222.127 1348.35
48.9349 98.1106 100.169
14.6277 87.1244 78.2436
-44.4887 61.5675 165.843
-28.4737 91.5861 135.211
-61.8146 67.2948 189.137
0.163405 87.4623 93.4835
51.5649 65.5844 100.925
-6.2696 78.1362 104.974
-59.2742 64.644 185.189
-57.4777 58.382 183.407
162.738 180.854 187.031
-12.1039 79.6013 110.9
24.3665 58.1837 85.7325
43.945 130.291 108.402
-31.0608 74.7949 138.596
-33.4888 68.062 143.892
-8.13892 58.1318 108.004
243.366 124.92 290.81
-3.86553 54.3408 101.032
-57.1264 72.564 176.778
-48.7852 67.2867 165.147
-24.6349 54.3056 130.468
-65.0196 70.8763 188.273
-7.10988 98.7836 91.633
-51.4611 62.9867 169.149
-167.407 20.3671 359.456
32.7055 82.0877 104.339
-54.3772 64.0024 172.256
-52.7988 62.4156 170.2
-46.9316 53.1301 163.13
-48.6129 52.9601 164.92
-35.347 82.7264 135.743
-72.0738 66.0666 198.344
-71.1302 65.3296 196.63
-9.71664 65.2521 97.668
-50.0252 71.5215 158.718
-57.8126 62.0591 171.394
-63.7882 60.768 180.726
-69.0782 59.1008 188.971
-249.686 72.4729 376.712
68.6136 146.652 101.853
298.159 194.192 96.3633
135.723 148.898 44.3703
156.981 155.115 25.2868
-302.481 79.4623 421.48
21335.8 6527.37 18743.1
-1893.28 -132.197 1792.14
-377.959 36.0556 492.335
-375.439 39.1799 489.747
-308.073 87.7516 425.757
-218.574 75.2156 352.314
108.893 128.363 67.6239
379.996 219.075 175.877
110.148 118.979 67.6288
2012.7 683.486 1631.32
-476.002 13.0001 580.487
-367.961 51.0737 483.13
3242.25 291.621 2620.74
-433.621 47.1275 540.349
-328.901 101.584 443.054
74.2272 149.971 92.0881
640.767 240.635 405.391
1260.43 137.25 919.137
536.701 250.314 319.83
363.813 175.348 160.407
-11926.4 310.896 10350.4
28.4543 125.643 134.031
54.9628 101.182 114.934
2445.28 586.466 2017
-419.539 51.1263 530.846
-502.596 67.5663 599.884
-11.5117 98.2569 172.243
-970.937 -162.107 1040.42
393.56 160.293 187.268
87.3407 93.3561 87.4273
-521.142 46.1056 620.87
66.59 130.869 99.155
155.141 121.227 23.8694
38.8726 90.0338 129.385
-259.228 66.9234 391.487
-458.769 82.2307 562.401
-20.437 94.9254 179.794
194.144 203.438 23.825
203.55 195.926 30.8714
201.841 192.268 28.8251
915.655 215.98 654.21
-529.41 65.1601 627.532
301.117 45.4622 92.8892
-473.637 -7.13846 591.067
-254.21 74.4815 386.816
34.4201 109.061 129.1
158.559 109.687 20.3494
38.0335 83.611 129.84
-277.546 67.9696 408.696
-404.16 89.3824 516.417
-25.5739 88.6633 184.499
217.926 200.174 46.9977
281.254 213.979 104.828
-299.019 70.6973 427.655
31.2914 114.873 130.118
183.837 100.192 6.36692
269.325 96.1615 76.7055
1646.06 -213.056 1241.93
198.97 164.338 26.1593
53.6784 109.41 110.758
236.097 110.652 50.6717
-248.606 74.4464 383.55
-235.936 78.8964 371.643
95.6249 136.324 68.9044
7.65514 98.2817 152.816
176.9 85.9464 6.21557
56.8278 67.1785 114.035
57.4075 65.9099 113.718
-597.994 112.183 688.455
-19.7285 79.593 179.742
-895.318 -38.6615 978.344
-266.382 82.6206 398.941
-434.905 112.029 544.546
-535.544 145.213 629.065
-27.8896 80.9945 186.551
-412.214 48.1125 535.186
-658.42 45.4923 755.734
299.91 81.2768 107.284
-22.6143 98.6556 178.716
27.5846 89.3681 135.146
393.067 184.167 208.33
-1877.08 -72.5551 1871.62
319.63 44.427 120.417
358.835 -34.5724 143.241
-27.3033 77.1405 186.058
-286.601 51.0192 423.77
-406.879 63.089 530.29
99.1331 118.411 65.1615
-307.085 52.3481 442.628
2.94046 113.719 152.404
-21.3498 95.2978 177.319
262.343 64.7124 74.8181
326.039 25.266 126.277
-28.3939 74.2116 186.934
-1987.89 -442.156 2049.46
332.475 151.801 153.46
-1171.62 78.9164 1225.01
187.66 47.7672 6.58105
-238.792 65.5621 379.571
21.2765 113.261 135.065
12.119 107.42 144.344
-28.9003 92.2463 184.054
-28.8185 91.6216 184.079
-2211.78 -413.544 2261.46
-954.157 -93.2834 1059.92
18.4514 74.7867 143.383
310.497 7.35837 113.018
-1314.35 -245.652 1417.51
217.762 127.661 48.3797
-857.392 114.985 940.416
-646.513 118.267 746.347
-30.0968 88.086 185.333
189.877 193.981 34.3527
126.736 153.482 30.2872
24.8447 107.514 131.487
74.2164 92.4821 88.4366
53.0291 73.4931 110.993
125.608 40.8933 49.3928
2.60579 72.1756 157.489
-548.147 -1.16054 677.919
-232.686 78.3534 373.684
-240.228 80.4606 380.312
45.7039 109.383 111.28
59.2443 95.0272 101.064
14.3073 75.0994 145.858
308.222 5.97824 114.966
137.895 146.711 19.1749
478.612 195.678 305.054
434.835 95.7311 248.255
417.118 91.0029 231.043
-4815.65 606.898 4543.52
-49.8069 83.785 203.531
-39.9917 80.3116 194.967
140.336 158.795 14.1561
-781.939 -22.8071 902.643
-752.922 168.682 844.567
696.423 -108.183 460.515
296.801 149.707 131.386
11.6946 69.3123 148.124
-258.451 82.8816 398.597
94.8419 130.196 59.8697
12.7898 97.0821 142.203
22.1735 95.5249 133.659
170.929 63.513 6.11407
15.4904 58.2289 146.008
-641.373 -74.6646 785.289
43.7998 88.3038 114.085
46.1342 86.5352 112.179
102.177 71.1674 61.9735
15.6818 63.578 144.581
316.554 -30.936 122.988
-1.34435 113.711 152.048
220.74 126.468 59.6517
844.191 123.455 649.141
277.807 47.546 101.192
185.209 48.467 13.7986
-12.1489 84.0427 166.812
-35.5366 75.5626 190.354
-940.718 -176.695 1090.42
-298.002 50.645 443.295
-299.893 52.4049 444.798
7.00276 119.585 142.447
19.8518 120.352 130.113
18.8931 83.909 137.039
1372.12 478.09 1218.55
154.193 124.801 5.6646
129.287 111.497 26.4848
264.318 48.1457 91.9324
125.22 49.3196 40.6776
163.769 38.0408 6.21227
-258.944 69.0445 404.423
4.15747 113.095 145.316
7.75632 109.272 142.504
-2.52458 102.986 153.398
-1.442 82.7885 155.72
-1332.59 -267.756 1491.23
-817.543 -101.998 969.403
201.548 107.725 43.4038
-13.4534 102.375 163.657
-11.0276 75.449 165.817
-4.01825 72.7812 159.525
-291.948 70.112 436.989
-515.796 106.736 646.38
65.4913 92.3632 88.8934
-1176.89 -170.572 1332.71
-1245.69 -176.817 1400.22
-795.635 145.202 911.535
-33.8352 84.3713 185.77
56.8136 108.086 93.7933
78.2237 99.8196 74.4329
45.5889 86.5428 108.292
-3.29074 67.3791 158.885
-229.068 66.0639 378.11
82.8637 148.725 61.067
228.546 163.874 83.1453
212.1 156.878 65.9738
146.715 100.469 7.1134
73.8325 85.1023 80.5732
6.29469 69.4861 148.878
-261.012 76.0233 407.942
-277.755 86.5727 422.47
-273.836 87.8041 418.445
32.7272 107.584 116.284
105.81 104.923 45.433
65.2007 91.5895 87.3066
186.833 19.9066 19.2406
-46.3412 78.6595 198.233
82.0783 136.621 62.5807
87.1695 130.57 58.623
7.51785 96.9386 142.295
13.0084 84.9703 138.95
-23.3552 74.1992 176.371
-21.7967 72.8359 175.077
-415.462 -0.506668 573.385
210.298 107.844 58.6092
44.1618 79.0257 109.191
-9416.38 -1436.33 9659.3
82.6049 83.2787 70.4346
151.937 73.9072 4.09295
-1765.16 423.425 1827.54
-16.1511 84.1647 167.156
-29.0349 71.8198 181.935
3913.03 547.684 3784.42
12591.8 1084.29 12429.1
-310.336 92.8381 455.432
-346.567 101.134 489.723
24.8203 83.2531 126.565
48.5354 77.7205 104.101
-345.569 23.6337 502.773
545.397 319.032 429.865
90.6453 130.376 52.8563
480.827 266.237 357.941
492.926 266.218 369.941
83.8692 118.189 61.3015
91.5982 106.574 55.6271
-5.66287 77.8579 157.051
-1.85008 75.8726 153.609
-1263.77 20.5678 1417.07
-337.287 108.966 481.096
112.558 99.2078 35.3549
69.1498 67.8268 83.968
99.6621 59.7963 54.9774
78.0724 169.084 56.9872
1853.37 719.759 1811.22
81.057 113.375 63.6264
71.9692 109.168 73.4295
56.6219 103.155 89.7963
-18.0753 75.9774 169.095
-380.748 33.8001 539.076
-313.793 62.4263 467.136
522.683 241.982 401.859
72.5041 104.814 73.0305
-10.2635 78.4299 160.543
-9.38257 77.1992 159.873
-16.0375 74.5974 166.993
-1647.53 -293.097 1868.4
462.796 162.686 329.144
-850.194 42.329 1009.79
-1125.79 76.8754 1280.46
415.607 69.9745 266.516
-53.5016 83.2079 202.786
79.1789 159.348 55.5526
407.276 192.56 281.233
-429.578 83.2724 582.065
59.8655 107.844 83.7474
54.0547 105.15 90.0893
50.8299 100.068 94.2346
51.4087 98.7844 93.8739
50.9655 92.5237 95.4144
33.9742 53.1214 119.46
-351.163 64.4524 507.067
-383.864 77.1387 537.951
-15.3777 109.297 159.195
83.091 111.193 59.0299
105.888 110.741 35.9957
24.7348 88.0588 122.244
3.80299 69.3162 146.747
-49.0046 84.022 197.63
51.1672 143.518 85.1614
69.8133 146.172 65.7274
28.9428 122.472 111.465
233.73 139.907 99.9193
42.1401 106.248 100.65
49.127 100.398 94.5601
68.8055 91.0283 76.1573
1907.25 -114.279 1760.94
63.0392 36.4347 91.6334
-267.381 79.2107 421.046
473.956 180.321 354.402
-440.87 82.6768 598.076
2.71437 109.955 139.599
-8.0826 103.049 151.875
-0.889496 101.14 144.846
-441.687 117.272 593.367
-504.31 130.964 655.073
-36.4061 77.11 185.357
-33.6406 75.6042 182.787
348.272 182.76 228.738
386.841 149.577 262.484
1082.44 -92.8009 934.218
-209.13 71.619 363.817
213.075 162.998 87.4853
42.7135 122.324 95.1201
31.8399 111.021 108.36
32.1597 109.486 108.303
131.514 74.9501 11.8609
-8.19579 62.7169 158.298
-198.42 79.7572 351.832
58.712 111.107 80
56.8857 103.438 83.2617
22.0047 88.9967 121.979
10.4745 78.3838 135.82
18.1398 75.8408 128.332
-368.415 21.6358 538.972
-262.333 87.1956 417.149
-19.2032 87.97 164.541
-1358.41 -367.71 1640.7
179.24 131.939 50.1766
340.198 142.777 219.735
230.781 119.373 101.595
-345.318 101.098 501.61
17.7299 105.092 122.626
-7.505 87.0002 152.197
-21.5297 80.3334 168.024
-895.234 -113.314 1115.61
-1490.8 -45.9934 1725.79
81.4756 61.5363 63.6046
56.7768 59.3601 89.8034
-195.912 79.6272 350.33
1410.1 604.929 1428.08
3669.56 1195.41 3903.5
132.981 119.823 3.68224
276.822 121.027 152.595
-479.395 24.3939 658.354
-22.7366 105.731 163.909
36.9308 99.7506 102.224
-24.3146 76.7438 170.817
-22.7332 75.3726 169.402
-274.269 60.7815 436.945
-278.528 61.7411 441.26
298.03 203.819 192.797
103.504 129.112 26.0958
21.2693 97.0167 118.725
50.7141 60.4783 94.2809
-845.311 40.797 1044.99
-677.995 68.7401 862.991
89.2406 113.869 43.1947
112.613 110.044 19.1379
64.7216 96.7817 72.2756
16.8547 70.1493 127.823
-56.4021 83.1146 202.973
-54.5078 82.012 201.165
25.1609 131.564 107.331
332.745 183.793 229.079
85.8979 107.289 47.2221
-3419.74 337.379 3730.58
-29.5492 77.8174 175.172
-26.1587 75.9234 171.91
182.994 126.328 60.5157
259.51 119.802 140.908
-1336.19 98.7826 1564.43
-1557.88 167.204 1788.28
-19.0753 99.1673 159.784
12.6974 89.6685 127.593
48.1346 84.3174 90.7275
-19.2546 65.7816 166.105
-306.918 61.5285 474.485
1.0436 118.057 134.411
0.106323 116.361 135.728
130.052 125.201 5.15899
164.884 108.672 39.4427
98.3089 29.4255 46.4964
230.012 151.789 118.452
232.877 148.39 120.904
41.3379 90.5992 95.7353
12.153 82.3862 128.635
-21.4588 70.0457 167.058
6230.53 1225.28 6781.54
1541.59 273.099 1554.41
-406.028 83.7902 578.599
-372.671 92.2437 541.102
90.29 105.413 39.6198
72.6372 95.9854 60.4136
19.3561 82.4252 120.415
-29.7408 69.1321 175.853
-368.536 78.0709 540.228
-6.58049 107.587 143.349
-9.9679 104.647 147.563
-15.6483 97.1704 155.103
-21.3882 93.3747 162.022
12.5948 88.3656 126.162
7.18735 78.0763 133.929
1516.24 -252.953 1438.32
203.785 148.215 93.1446
157.501 128.663 39.219
160.387 122.212 41.1512
-399.057 -7.09265 591.272
-424.675 -2.39769 618.275
-373.818 18.4914 559.028
-296.383 83.1411 462.685
-361.404 94.2742 531.367
-360.741 104.979 528.646
-29.9934 90.0074 171.376
-29.7179 89.2904 171.084
50.3724 120.885 77.3852
515.981 153.729 438.047
458.881 100.619 365.629
-394.758 129.002 562.734
258.024 240.279 173.601
30771.3 9361.21 35378.9
-1642.63 -333.652 2020.41
451.053 136.486 365.919
1149 168.099 1137.87
-314.849 97.497 482.006
-434.183 122.209 608.325
-5.41966 97.3308 142.261
0.956772 79.0064 138.705
-30.5457 84.8925 172.102
-30.1552 81.5261 172.307
-13.168 76.0663 154.633
-558.838 -45.2751 779.296
139.564 104.917 19.4986
-10.1552 70.9346 152.08
-313.737 36.4865 493.867
452.869 98.5032 365.006
700.517 80.7 635.295
23.7409 58.9332 116.69
-207.739 83.6 367.99
16.0104 107.051 115.635
12.6317 104.901 119.79
-34.1471 100.916 172.292
44.8258 92.8416 86.1163
48.9409 91.6678 81.7692
-10.9958 75.9708 151.325
21.6808 66.2546 116.881
-3541.69 -923.996 4276.68
-750.846 -77.2686 1004.75
193.911 97.1148 81.4397
303.693 69.0902 198.44
9.63547 58.256 131.346
20.9939 53.1725 119.658
1982.26 505.518 2160.71
6435.27 1316.92 7295.86
51.727 82.9041 79.1189
-53.2035 83.9864 196.17
-25.1722 74.2901 166.63
-1811.48 -293.201 2241.52
200.214 101.738 91.7373
75.717 81.1855 51.9131
230.233 118.075 129.89
177.348 100.287 66.9137
1086.69 13.122 1074.04
6482.93 -466.202 7057.87
-40.4372 72.063 183.644
260.49 157.505 173.033
3429.83 573.882 3834.49
228.669 101.164 126.189
2958.59 -26.7941 3185.94
-1254.39 162.554 1537.63
-43.6499 91.341 183.291
-28.7326 71.6562 170.219
-22.6768 68.7563 163.927
-1982.5 -255.057 2448.53
28.2079 132.182 93.4954
-12.3278 106.131 144.59
19.7147 101.971 109.008
-2577.89 262.939 3027.75
1416.62 -155.411 1427.42
49.6147 34.9204 88.0729
80.7619 189.897 21.796
26.5562 104.099 100.283
60.6957 98.1101 62.5448
86.0458 94.4175 34.3756
54.7798 81.9432 72.4361
213.766 28.0806 98.2484
271.355 160.003 191.12
-251.726 87.7988 421.146
-26.9872 98.2481 161.967
-26.1671 93.2951 161.997
-8.76921 80.0823 144.656
-711.689 -109.115 988.112
282.479 118.318 197.261
-407.276 103.401 597.14
-433.682 122.394 623.717
63.0694 92.5278 59.2478
-1016.89 187.492 1281.91
-523.524 144.233 723.323
-15.807 86.8436 150.862
17.4789 79.6456 113.955
148.162 87.9793 38.6888
-22.1696 96.5022 155.936
-23.2274 95.0722 157.44
-39.5993 82.9454 178.588
-39.8147 82.2076 178.983
497.443 298.511 486.91
-359.726 31.6346 559.753
846.222 135.926 859.12
-323.576 101.37 504.036
-359.969 111.026 544.319
-374.34 126.863 557.847
-52.4524 89.1117 192.016
-706.341 -108.233 991.844
566.252 189.495 547.896
131.057 93.3565 22.4708
-633.364 -27.0229 891.927
303.755 210.667 248.44
144.845 108.32 42.5233
141.28 101.892 37.0809
43.4821 59.7453 85.4946
-56.1232 86.4828 196.374
-45.1121 80.517 184.687
-41.5602 78.5879 180.918
-1357.03 -290.551 1795.7
179.17 82.0381 78.5312
-404.331 136.649 594.171
3069.4 900.029 3641.59
1030.2 262.42 1116.39
-1987.59 -107.959 2505.75
0.424156 59.5272 134.953
0.506004 58.3271 135.097
-4.5451 127.587 126.696
146.593 108.785 47.8279
-6.80563 89.9078 136.755
-15.8577 70.3943 151.383
16.5854 58.6304 115.414
-296.226 61.2389 484.937
-319.92 64.081 512.414
68.7797 125.569 39.4917
98.8828 106.842 7.57782
211.032 104.11 124.863
436.246 73.2721 385.704
-42.0767 98.0871 176.387
62.8781 83.3776 54.6916
164.647 69.078 63.3019
23.8704 142.861 88.3995
-32.6667 100.733 164.347
50.5381 93.8442 66.5644
91.4661 84.3537 19.7047
-28.173 65.5162 166.142
-377.022 67.1585 582.206
-345.243 79.5642 541.734
7.95144 95.1934 116.561
-36.9835 72.4128 174.953
500.479 187.965 492.861
-479.214 67.458 705.739
-650.102 102.903 903.29
-41.9844 95.0132 176.045
-45.701 91.5602 181.1
-42.2199 90.1164 177.21
-40.3372 70.1382 179.035
-404.8 47.3665 622.569
-531.299 94.4379 765.297
-33.0484 101.573 163.507
56.3538 88.4151 58.3329
51.8729 81.489 65.1621
199.31 27.9981 101.756
-833.861 163.145 1118.69
1645.87 -217.001 1800.65
-47.2252 87.7294 183.194
-300.865 23.8156 503.909
141.31 78.6842 43.7996
313.896 19.8503 241.015
-43.6226 86.2133 178.866
236.985 247.305 196.239
66.0798 96.2968 43.0716
62.8008 88.9633 48.5815
265.689 114.582 204.561
8.41039 74.5387 117.284
12.0425 66.8691 114.44
357.965 -37.722 286.421
-190.929 77.0048 360.453
-702.509 -90.8172 1022.77
-537.593 -30.1636 807.96
470.004 163.089 467.542
3.73826 74.2453 122.575
-436.411 108.172 655.797
-52.0013 81.5432 189.144
-44.1726 81.8653 179.282
-30.1487 73.0237 163.849
-418.361 22.8287 653.525
-212.646 80.7691 387.368
-285.292 107.758 471.406
-13.3927 98.5855 137.42
343.256 64.1888 296.472
-198.624 78.6729 370.891
27.9244 93.1313 86.8599
-30.571 69.3591 164.476
-19.6968 64.0379 152.1
-224.073 83.6721 401.88
-44.9263 78.0028 180.196
-5190.58 -1236.83 6879.79
21.3931 84.9446 95.8027
-15.388 57.3367 147.549
202.949 -24.6026 108.257
84.1694 149.962 2.30565
24.1973 109.857 86.0853
-19.457 63.4248 150.575
-10.6437 127.519 125.365
-795.52 -2.19029 1143.03
-484.565 52.6672 739.108
7.05585 102.321 108.196
-53.2877 74.4385 190.408
-9.30295 87.764 131.729
-253.467 41.6688 451.003
-396.534 65.3797 627.326
90.0153 70.4122 8.44763
-19.8838 113.868 138.491
-24.6764 83.0061 151.288
-19.5307 79.6652 145.44
26.8261 66.823 89.0225
-230.326 60.1098 419.127
115.137 120.042 36.3097
142.066 112.543 69.1929
484.008 129.102 512.444
258.97 94.8993 216.078
480.351 4.71796 480.702
490.771 -3.71999 492.245
35.2889 159.013 56.4526
-8.91833 115.754 122.852
196.755 86.445 135.766
35.5217 65.7704 76.4954
-54.2258 84.8609 187.871
-54.3084 84.1898 188.024
-208.059 67.9219 390.601
-367.601 99.1379 591.02
-340.149 97.2911 556.335
78.0162 91.9583 13.4109
73.4877 79.6277 22.0261
78.9607 75.5645 15.7932
-51.5472 94.3025 181.531
-45.4685 91.2744 174.269
-54.7626 84.1128 187.975
-54.4143 81.0545 188.196
-674.551 -85.8392 1035.54
-955.974 -139.843 1415.33
107.151 99.7539 27.2759
176.416 88.6925 115.368
-195.069 78.3965 372.677
-360.35 116.382 580.711
71.4449 77.4626 23.4817
72.4057 72.473 23.328
51.4569 32.79 59.6121
-215.989 76.7357 400.953
-891.346 229.551 1254.61
-23.9858 63.6292 151.354
62.8701 156.671 15.4249
-556.038 4.75606 867.124
65.721 145.648 13.7183
-22.4047 95.5555 141.567
-585.332 -31.7592 916.348
128.23 82.1896 55.434
-790.896 218.156 1132.95
94.5551 2.22959 7.13847
-889.899 -14.4499 1320.18
112.526 81.4774 35.9988
-66.5712 81.6942 202.652
70.7751 146.817 4.03576
80.7508 138.862 7.51476
73.0764 67.2292 18.9392
93.3145 1.1017 6.80109
71.2494 149.385 1.89717
63.8677 84.5703 26.5042
19.4924 75.6279 87.8476
1099.24 636.94 1501.8
