ply
format ascii 1.0
element vertex 547
property float x
property float y
property float z
property uchar red
property uchar green
property uchar blue
end_header
56.0485 77.1382 39.1203 0 0 0
116.297 111.05 31.4055 0 0 0
58.6235 79.3203 33.1838 0 0 0
86.2246 105.89 42.6064 0 0 0
81.4527 90.4972 34.3243 0 0 0
87.0267 86.8279 24.0767 0 0 0
80.7607 92.7548 28.2466 0 0 0
64.9997 74.8941 21.7107 0 0 0
120.462 110.745 20.7 0 0 0
110.577 112.463 18.5365 0 0 0
85.4716 106.471 43.697 0 0 0
70.5002 83.4768 21.7943 0 0 0
104.708 116.167 26.9375 0 0 0
104.101 116.558 27.8547 0 0 0
73.2109 98.5873 54.6698 0 0 0
90.4494 87.8884 22.7659 0 0 0
80.2075 85.4492 35.0323 0 0 0
73.881 97.998 53.5446 0 0 0
78.1838 98.6466 33.9472 0 0 0
93.0541 109.15 24.1467 0 0 0
83.9126 93.4733 33.913 0 0 0
85.1914 84.1153 33.0622 0 0 0
106.885 125.829 19.3456 0 0 0
62.7035 77.9679 36.7633 0 0 0
92.5895 128.715 9.61542 0 0 0
80.4333 89.0289 38.0105 0 0 0
78.8878 90.7225 31.6551 0 0 0
85.0072 103.846 44.881 0 0 0
63.2211 78.9054 36.1872 0 0 0
84.4974 89.839 34.3746 0 0 0
127.18 106.36 26.7939 0 0 0
127.945 105.884 25.8493 0 0 0
107.269 119.486 23.5752 0 0 0
68.7886 85.0546 3.93775 0 0 0
124.758 109.688 31.435 0 0 0
92.5201 128.758 9.60291 0 0 0
60.1935 99.1185 18.8813 0 0 0
58.4198 97.9816 18.3331 0 0 0
83.6695 99.0706 42.7204 0 0 0
102.819 123.778 28.2687 0 0 0
119.967 106.979 18.6601 0 0 0
73.5928 91.5404 46.2615 0 0 0
56.4172 97.3077 21.0589 0 0 0
77.1163 97.3325 29.054 0 0 0
113.508 111.122 28.0185 0 0 0
94.3022 108.58 19.2631 0 0 0
74.0151 94.7224 18.9367 0 0 0
95.2693 111.387 27.0827 0 0 0
111.398 116.608 19.961 0 0 0
106.257 126.342 26.1165 0 0 0
83.365 102.157 43.2089 0 0 0
81.8702 87.738 34.0468 0 0 0
107.54 105.86 20.5556 0 0 0
90.6561 126.608 9.53984 0 0 0
74.5704 90.1782 28.4162 0 0 0
95.2858 129.724 8.29086 0 0 0
92.1257 113.599 31.4961 0 0 0
60.9343 98.7774 56.6277 0 0 0
99.4159 127.063 2.66214 0 0 0
86.0056 87.8057 37.9349 0 0 0
84.4472 101.63 45.9542 0 0 0
107.944 95.2834 4.9118 0 0 0
62.5246 97.006 48.9908 0 0 0
101.721 116.156 25.7211 0 0 0
61.1905 83.6507 29.9958 0 0 0
110.168 124.047 20.7858 0 0 0
82.5009 62.4212 1.57786 0 0 0
107.203 112.567 18.304 0 0 0
109.481 126.905 11.1272 0 0 0
114.085 116.401 17.4808 0 0 0
77.5955 97.9444 19.6374 0 0 0
82.9052 90.0625 39.5732 0 0 0
126.585 108.824 3.37577 0 0 0
73.4505 105.824 38.137 0 0 0
118.865 107.174 31.6759 0 0 0
127.812 113.53 13.3213 0 0 0
90.2775 102.314 12.9792 0 0 0
112.7 125.056 8.41814 0 0 0
121.853 118.628 19.9752 0 0 0
66.945 107.104 36.8057 0 0 0
119.534 115.588 22.2271 0 0 0
85.7041 101.593 36.9399 0 0 0
120.838 114.804 20.5207 0 0 0
128.529 107.632 0.248829 0 0 0
114.968 113.812 21.3432 0 0 0
115.117 104.931 24.1418 0 0 0
120.842 119.215 21.2875 0 0 0
77.8644 94.4302 30.6371 0 0 0
108.632 108.973 11.9783 0 0 0
62.7326 74.3105 36.0684 0 0 0
84.0152 92.9539 43.0554 0 0 0
73.4684 128.929 35.7133 0 0 0
88.5517 99.2618 54.4877 0 0 0
85.7604 103.767 15.1285 0 0 0
93.2812 112.064 20.0275 0 0 0
118.627 107.327 32.1036 0 0 0
60.2938 76.9968 40.7196 0 0 0
73.7541 90.4484 10.2794 0 0 0
63.6432 94.0233 54.2512 0 0 0
90.7567 97.4997 51.0905 0 0 0
107.904 95.8822 34.2031 0 0 0
98.5092 100.562 27.4121 0 0 0
113.803 126.098 25.3432 0 0 0
98.5451 100.685 20.666 0 0 0
107.648 109.631 13.5698 0 0 0
112.231 87.5765 27.3194 0 0 0
113.492 126.274 26.0807 0 0 0
64.9872 70.8901 1.97837 0 0 0
97.9628 100.972 28.5539 0 0 0
75.4211 96.5796 35.5613 0 0 0
72.0347 91.8119 27.5075 0 0 0
94.9075 102.402 3.34941 0 0 0
76.9599 72.0627 24.1522 0 0 0
113.398 124.654 7.25665 0 0 0
110.297 125.332 36.7393 0 0 0
86.4008 72.0642 16.6707 0 0 0
71.9769 103.258 66.6013 0 0 0
64.9131 80.7745 33.1459 0 0 0
96.6403 102.111 23.7239 0 0 0
81.9669 101.775 32.8043 0 0 0
79.0388 89.6655 44.9223 0 0 0
82.6822 101.609 6.54435 0 0 0
86.7016 100.447 53.5658 0 0 0
90.5079 105.508 21.8442 0 0 0
91.5654 75.6838 27.6887 0 0 0
69.1517 75.9655 38.433 0 0 0
106.654 108.712 20.955 0 0 0
112.378 106.757 28.2147 0 0 0
109.69 106.41 22.5831 0 0 0
106.451 92.6429 38.7106 0 0 0
93.5575 73.857 25.3718 0 0 0
98.8595 92.7258 43.7746 0 0 0
84.0466 102.401 13.5556 0 0 0
53.8868 92.4702 14.9224 0 0 0
81.0877 100.259 16.0923 0 0 0
72.6256 72.3319 31.3904 0 0 0
97.8388 112.147 22.4136 0 0 0
69.8869 74.1696 37.7735 0 0 0
78.7327 86.76 42.0078 0 0 0
97.3934 71.187 22.5553 0 0 0
103.574 123.991 21.7222 0 0 0
82.9824 101.823 15.5435 0 0 0
86.1544 103.767 46.5801 0 0 0
132.293 93.2558 4.98857 0 0 0
102.764 124.134 22.0881 0 0 0
83.7153 101.933 14.4578 0 0 0
101.886 115.237 12.6802 0 0 0
130.624 116.574 0.453238 0 0 0
83.7007 100.462 13.7879 0 0 0
95.716 112.751 21.3465 0 0 0
99.3408 135.234 23.2614 0 0 0
97.1031 109.786 41.6911 0 0 0
112.514 88.0373 31.0295 0 0 0
90.9617 106.219 38.8145 0 0 0
64.6154 93.8527 0.784398 0 0 0
126.155 115.596 21.3132 0 0 0
93.5465 136.039 27.7768 0 0 0
132.883 93.0922 5.81112 0 0 0
108.796 104.314 16.1665 0 0 0
99.7067 105.784 23.3738 0 0 0
100.574 109.377 13.757 0 0 0
111.287 129.813 10.1962 0 0 0
84.1002 109.489 2.88355 0 0 0
96.2835 112.893 18.1359 0 0 0
75.119 112.663 6.52385 0 0 0
128.267 107.595 16.5018 0 0 0
111.001 132.469 17.9161 0 0 0
102.235 102.987 25.8267 0 0 0
90.2288 88.5367 40.2534 0 0 0
120.829 117.717 29.9697 0 0 0
122.072 114.605 22.2022 0 0 0
110.65 105.285 39.893 0 0 0
104.193 107.762 12.023 0 0 0
73.0316 91.1962 41.4339 0 0 0
66.7608 92.2035 26.036 0 0 0
86.7422 123.433 5.09796 0 0 0
73.812 76.2567 39.8095 0 0 0
96.562 92.9191 19.116 0 0 0
79.942 70.0405 29.424 0 0 0
79.0861 70.9084 30.7332 0 0 0
82.5114 99.2529 26.7312 0 0 0
123.094 117.175 27.3992 0 0 0
61.1556 97.1736 6.52003 0 0 0
138.919 100.99 10.5138 0 0 0
51.6668 87.537 14.9819 0 0 0
77.4182 81.2708 43.1559 0 0 0
96.7832 112.875 23.1514 0 0 0
123.993 116.636 22.4636 0 0 0
74.0788 67.3144 16.7558 0 0 0
125.07 115.226 25.2169 0 0 0
104.01 81.1341 20.9995 0 0 0
70.5002 102.974 9.73302 0 0 0
118.228 100.742 14.5363 0 0 0
107.528 104.172 27.2467 0 0 0
83.7326 95.7288 2.07865 0 0 0
99.7244 104.676 24.3704 0 0 0
103.663 110.928 13.2404 0 0 0
83.3247 96.0723 2.84414 0 0 0
115.805 101.704 28.5619 0 0 0
125.044 116.037 25.8201 0 0 0
82.7428 98.8739 27.4954 0 0 0
72.011 86.4707 51.505 0 0 0
89.8113 131.364 23.7116 0 0 0
101.359 113.562 16.4172 0 0 0
99.5945 104.632 26.4695 0 0 0
123.58 110.472 25.5446 0 0 0
66.2129 98.3365 58.0169 0 0 0
94.173 96.8301 36.9539 0 0 0
108.033 132.968 13.6164 0 0 0
93.4652 126.296 10.8779 0 0 0
106.105 135.58 37.3471 0 0 0
98.8774 124.717 13.1309 0 0 0
115.012 127.747 4.90648 0 0 0
116.169 104.229 23.7497 0 0 0
134.406 114.432 5.77921 0 0 0
101.237 112.566 16.6591 0 0 0
75.6084 89.9993 34.9711 0 0 0
85.347 104.703 13.4926 0 0 0
117.524 106.621 40.3374 0 0 0
111.303 132.774 29.9134 0 0 0
88.8975 92.9526 11.3831 0 0 0
102.699 135.89 21.3626 0 0 0
78.7439 99.4888 10.2977 0 0 0
116.88 89.2624 20.6782 0 0 0
95.0251 118.065 33.9206 0 0 0
97.3566 116.825 25.4466 0 0 0
110.616 106.335 27.3258 0 0 0
73.1307 93.3567 34.3013 0 0 0
115.773 107.76 42.9978 0 0 0
102.984 111.062 37.5461 0 0 0
115.32 114.173 13.6415 0 0 0
83.1821 103.294 27.7261 0 0 0
71.0462 97.3319 4.19325 0 0 0
85.2298 113.387 8.89687 0 0 0
84.0368 110.427 9.90125 0 0 0
94.5623 128.279 18.5608 0 0 0
69.1774 99.0123 8.34484 0 0 0
110.9 101.909 24.1533 0 0 0
93.7083 128.803 20.0353 0 0 0
106.005 117.619 3.47547 0 0 0
126.345 107.358 16.9113 0 0 0
98.8785 102.135 5.29753 0 0 0
94.5317 126.447 9.9869 0 0 0
82.0661 111.642 14.5594 0 0 0
82.2103 102.088 26.7403 0 0 0
82.9895 102.383 52.5705 0 0 0
100.123 114.588 3.47594 0 0 0
66.0256 101.846 14.5935 0 0 0
68.5056 100.81 16.9116 0 0 0
108.37 109.231 39.8843 0 0 0
73.9549 82.0853 39.2312 0 0 0
75.8013 89.246 32.7801 0 0 0
123.346 96.6513 23.1549 0 0 0
73.9836 91.0586 34.6741 0 0 0
96.9895 136.039 12.5228 0 0 0
110.585 109.331 26.409 0 0 0
123.44 100.959 28.2267 0 0 0
78.7488 90.5482 20.5643 0 0 0
86.6539 99.6129 28.2328 0 0 0
103.412 124.652 19.3407 0 0 0
85.928 111.157 6.09163 0 0 0
121.021 98.9954 1.88522 0 0 0
109.043 103.201 27.3221 0 0 0
98.7406 123.918 12.9481 0 0 0
93.8971 118.819 35.2593 0 0 0
88.6306 99.3362 1.06132 0 0 0
87.6134 98.2168 26.0122 0 0 0
76.1518 100.353 14.8721 0 0 0
66.0393 107.882 40.5523 0 0 0
85.999 96.2868 43.897 0 0 0
82.1397 113.971 12.8473 0 0 0
91.3456 107.744 15.8912 0 0 0
80.2026 108.602 18.904 0 0 0
116.884 102.899 31.4083 0 0 0
88.3004 99.1963 19.1426 0 0 0
61.9543 87.3703 50.6553 0 0 0
65.8805 93.0462 27.0094 0 0 0
93.4485 103.824 27.1202 0 0 0
90.585 107.135 27.4384 0 0 0
102.544 121.546 6.64755 0 0 0
75.1759 93.6183 1.64927 0 0 0
126.874 115.444 16.7881 0 0 0
112.078 105.198 44.0423 0 0 0
103.303 132.479 1.69833 0 0 0
86.6427 99.4348 46.6431 0 0 0
81.4747 87.9544 14.8205 0 0 0
87.5954 108.229 35.28 0 0 0
68.7485 97.399 2.87609 0 0 0
136.157 104.436 21.158 0 0 0
58.3739 82.059 33.5289 0 0 0
117.103 100.897 32.0502 0 0 0
86.8227 103.417 7.73733 0 0 0
92.477 105.228 30.681 0 0 0
75.5205 89.6421 32.3403 0 0 0
105.704 130.968 3.25639 0 0 0
64.4746 75.462 22.2603 0 0 0
72.2028 80.9029 48.2502 0 0 0
75.5758 63.5694 24.346 0 0 0
64.2296 90.1097 27.5417 0 0 0
64.327 89.4497 56.1266 0 0 0
64.4959 111.259 32.6702 0 0 0
72.305 104.648 17.8967 0 0 0
110.824 105.166 40.8669 0 0 0
119.403 96.1871 27.4977 0 0 0
57.3432 83.1735 36.2785 0 0 0
79.5002 85.6699 43.2315 0 0 0
67.4262 85.2881 10.1075 0 0 0
66.7171 90.4626 9.85124 0 0 0
53.6417 99.4008 37.6775 0 0 0
83.491 97.0752 34.7744 0 0 0
108.12 102.015 27.3881 0 0 0
90.6577 116.635 0.652704 0 0 0
59.5483 80.1549 33.7345 0 0 0
98.6183 90.9043 35.9975 0 0 0
94.2066 125.084 16.0263 0 0 0
53.684 94.2219 24.553 0 0 0
102.038 132.107 5.28176 0 0 0
54.8443 97.533 31.4231 0 0 0
70.7405 98.817 13.3603 0 0 0
106.579 126.153 32.5775 0 0 0
115.954 98.3912 16.2128 0 0 0
70.7685 95.7023 27.7115 0 0 0
133.174 94.5412 15.3985 0 0 0
90.1997 104.391 26.5259 0 0 0
65.3059 84.9277 32.0231 0 0 0
92.2926 121.103 11.5715 0 0 0
81.5175 85.7059 18.1426 0 0 0
102.861 117.422 19.3557 0 0 0
83.5189 96.2972 9.75283 0 0 0
111.482 119.424 7.21369 0 0 0
95.7193 114.196 9.47464 0 0 0
70.4285 79.1652 14.1187 0 0 0
84.8072 105.905 10.1843 0 0 0
109.887 115.063 10.99 0 0 0
87.1847 113.743 11.8868 0 0 0
52.5074 95.4353 26.6972 0 0 0
88.3098 122.708 10.4834 0 0 0
94.1843 112.526 14.4209 0 0 0
80.4842 79.7815 22.1161 0 0 0
83.3974 106.68 40.1785 0 0 0
89.7186 92.9846 44.4977 0 0 0
81.0109 102.555 35.07 0 0 0
75.6843 100.081 61.957 0 0 0
119.149 113.192 31.8373 0 0 0
99.6054 114.917 0.485787 0 0 0
90.6827 96.175 40.949 0 0 0
86.1548 95.9398 49.9502 0 0 0
74.4311 94.5216 10.8122 0 0 0
108.686 98.6196 38.8748 0 0 0
75.0665 70.3971 29.7279 0 0 0
55.7532 96.9333 15.268 0 0 0
64.0171 91.4267 26.9544 0 0 0
88.9373 112.477 9.6961 0 0 0
61.6452 86.0114 6.94034 0 0 0
74.7512 106.158 11.9452 0 0 0
112.019 103.395 30.5448 0 0 0
123.041 117.206 27.3539 0 0 0
101.285 107.038 50.2347 0 0 0
91.1822 113.643 7.72474 0 0 0
80.9686 109 40.9363 0 0 0
87.5149 99.7961 51.8045 0 0 0
108.073 102.048 27.4553 0 0 0
59.6622 80.0312 35.2646 0 0 0
114.755 94.0114 19.3926 0 0 0
90.229 114.671 11.8706 0 0 0
61.8629 87.4636 49.9137 0 0 0
65.1626 75.0025 19.4539 0 0 0
90.5043 125.761 25.7896 0 0 0
117.365 94.2538 43.9574 0 0 0
59.2462 80.4828 35.4125 0 0 0
58.9448 90.2585 2.27261 0 0 0
67.1647 93.1424 23.4314 0 0 0
116.006 121.862 14.7293 0 0 0
91.152 97.7864 42.7614 0 0 0
99.6098 100.85 22.9146 0 0 0
60.7872 94.3537 0.0600144 0 0 0
60.0207 88.0667 21.9618 0 0 0
93.2359 119.088 3.80126 0 0 0
99.7977 110.576 44.085 0 0 0
71.7647 82.082 43.5692 0 0 0
64.4529 93.739 64.5409 0 0 0
129.351 97.0616 19.9564 0 0 0
73.0129 64.1832 30.5606 0 0 0
67.9832 84.6185 15.9264 0 0 0
86.6014 100.414 31.0807 0 0 0
114.574 98.3851 33.736 0 0 0
88.8041 127.447 3.31682 0 0 0
61.1143 91.6134 4.19557 0 0 0
96.4308 91.5369 32.6707 0 0 0
52.2723 95.6778 25.6233 0 0 0
105.398 107.293 62.5638 0 0 0
102.676 98.6536 55.0185 0 0 0
82.0313 117.468 21.3659 0 0 0
90.1175 126.608 1.21726 0 0 0
118.997 103.361 47.1124 0 0 0
76.7104 118.531 32.3496 0 0 0
82.9665 65.9351 14.6373 0 0 0
75.3744 87.5141 16.294 0 0 0
75.7415 102.041 66.8677 0 0 0
60.0401 89.1398 5.3132 0 0 0
59.0595 76.8742 34.7108 0 0 0
107.298 97.5131 41.0565 0 0 0
60.2246 98.5653 28.6825 0 0 0
97.2528 121.429 15.2599 0 0 0
93.1161 101.212 53.4958 0 0 0
61.4046 87.7461 8.43955 0 0 0
94.7611 113.066 30.9068 0 0 0
96.3154 111.07 0.491076 0 0 0
77.5043 99.3221 15.0888 0 0 0
66.0075 89.6696 15.2878 0 0 0
95.9081 103.301 5.18592 0 0 0
66.9042 76.9212 38.0607 0 0 0
105.594 122.994 4.16966 0 0 0
66.9286 72.1425 20.0231 0 0 0
103.743 118.433 16.5524 0 0 0
104.375 114.484 9.38463 0 0 0
103.425 96.8239 24.3995 0 0 0
85.494 99.7815 63.3341 0 0 0
85.5631 93.4251 6.108 0 0 0
100.232 108.63 48.0422 0 0 0
118.675 115.426 6.61427 0 0 0
101.987 116.046 13.3775 0 0 0
108.418 96.699 30.3615 0 0 0
71.7042 80.677 2.30503 0 0 0
120.164 114.526 8.50289 0 0 0
98.8499 116.765 1.04889 0 0 0
85.746 116.846 18.2902 0 0 0
135.401 104.895 22.7645 0 0 0
95.3995 94.4063 37.0993 0 0 0
70.5197 103.224 13.1439 0 0 0
63.2884 76.848 0.731774 0 0 0
59.2867 96.93 25.1957 0 0 0
108.426 101.498 43.8643 0 0 0
81.0273 97.8192 20.3378 0 0 0
90.8536 115.579 4.8916 0 0 0
103.677 107.351 1.36212 0 0 0
76.1353 101.944 28.5973 0 0 0
96.5201 122.975 18.4972 0 0 0
122.077 114.602 22.5567 0 0 0
96.5274 94.5332 5.75297 0 0 0
87.1577 115.05 18.2062 0 0 0
82.5768 121.353 9.551 0 0 0
100.528 99.2331 30.4521 0 0 0
81.5973 84.7553 63.6514 0 0 0
99.8072 108.928 48.7332 0 0 0
105.62 103.482 46.8687 0 0 0
82.7899 102.154 1.33612 0 0 0
91.4271 105.572 23.4754 0 0 0
91.8832 117.512 9.64168 0 0 0
94.6483 93.7798 15.5272 0 0 0
111.425 127.737 5.22566 0 0 0
87.0929 100.134 51.8142 0 0 0
103.388 96.0629 37.3079 0 0 0
77.2779 101.539 20.3064 0 0 0
96.2417 126.864 2.70356 0 0 0
116.524 121.671 47.3324 0 0 0
66.7409 89.4412 29.7928 0 0 0
107.591 102.597 40.9773 0 0 0
81.5528 83.3037 28.2973 0 0 0
65.941 90.4589 32.423 0 0 0
112.42 118.855 6.56956 0 0 0
70.7521 102.845 37.7288 0 0 0
69.955 92.9508 8.67294 0 0 0
104.105 114.868 16.1136 0 0 0
93.4955 114.416 16.1233 0 0 0
65.7162 96.9062 0.436073 0 0 0
101.133 123.149 14.8369 0 0 0
105.771 115.549 13.3682 0 0 0
112.825 104.693 42.6982 0 0 0
95.6974 95.1891 7.22104 0 0 0
84.8144 111.568 14.5639 0 0 0
98.9659 102.959 35.7379 0 0 0
101.222 83.4462 25.4016 0 0 0
103.389 115.328 5.44908 0 0 0
90.22 105.075 2.66349 0 0 0
84.0171 118.075 21.8329 0 0 0
116.29 125.446 32.6403 0 0 0
108.736 122.08 36.3296 0 0 0
51.8384 99.6562 11.3469 0 0 0
57.9634 78.0925 35.8139 0 0 0
99.6531 96.1904 43.5627 0 0 0
104.232 111.994 44.5938 0 0 0
91.1171 112.926 19.3254 0 0 0
105.709 121.742 6.37062 0 0 0
106.535 112.8 1.46141 0 0 0
62.7656 92.8414 21.6102 0 0 0
67.3283 112.278 25.7131 0 0 0
62.4131 69.7024 5.55375 0 0 0
107.404 103.611 37.8939 0 0 0
63.0413 90.0474 19.5535 0 0 0
101.006 123.228 15.8654 0 0 0
122.485 86.4106 10.9347 0 0 0
94.8476 91.112 1.1466 0 0 0
84.0483 99.9265 17.4154 0 0 0
72.0106 88.2734 51.6069 0 0 0
92.8263 110.117 15.232 0 0 0
96.4684 116.514 15.0419 0 0 0
110.601 95.0968 35.8198 0 0 0
108.028 118.876 5.27748 0 0 0
112.112 101.086 32.9014 0 0 0
100.75 116.593 10.5173 0 0 0
112.927 99.7466 30.4574 0 0 0
102.689 115.322 7.8091 0 0 0
105.079 89.0923 25.5564 0 0 0
65.3492 72.5676 13.9708 0 0 0
63.7901 99.632 23.6262 0 0 0
108.653 102.131 31.0013 0 0 0
104.046 121.344 11.0637 0 0 0
87.5707 118.773 5.7622 0 0 0
63.9206 108.932 25.9941 0 0 0
86.7311 131.588 4.28799 0 0 0
97.9801 115.499 12.0559 0 0 0
102.665 102.128 33.9454 0 0 0
68.8714 111.006 21.3975 0 0 0
89.6664 90.2788 45.5047 0 0 0
64.4849 98.9879 22.0892 0 0 0
83.3152 132.146 11.7025 0 0 0
80.5621 72.6784 39.9569 0 0 0
85.8665 89.6551 19.6376 0 0 0
58.2425 101.084 54.2143 0 0 0
102.937 94.5601 32.6959 0 0 0
89.382 94.0945 18.7972 0 0 0
67.635 105.719 18.62 0 0 0
64.0967 100.242 65.8459 0 0 0
74.8699 86.0497 0.889208 0 0 0
75.9672 100.942 20.9826 0 0 0
112.855 101.627 41.7591 0 0 0
104.736 101.08 46.3646 0 0 0
109.589 115.196 4.6103 0 0 0
59.6745 75.5654 26.7366 0 0 0
84.7916 103.807 25.4399 0 0 0
62.0151 91.0686 22.5712 0 0 0
99.3769 128.78 4.00825 0 0 0
104.879 104.507 44.0712 0 0 0
75.6022 102.143 15.7381 0 0 0
89.9629 127.947 0.507142 0 0 0
66.2837 94.184 15.933 0 0 0
98.3383 102.573 5.02071 0 0 0
54.798 104.364 60.8752 0 0 0
65.8291 89.3355 18.8415 0 0 0
58.6183 95.2363 44.2872 0 0 0
91.9172 133.222 6.54243 0 0 0
85.2647 95.5633 14.1616 0 0 0
117.569 110.142 8.20667 0 0 0
97.1612 126.298 6.87159 0 0 0
63.6672 91.7695 26.3277 0 0 0
58.4709 101.047 39.6578 0 0 0
