812.175 940.097 1480.79
222.127 202.562 169.476
183.62 192.529 135.484
409.721 680.082 916.973
310.232 353.735 421.318
100.743 106.33 25.7794
60.3982 153.654 17.1128
216.657 164.76 114.857
180.184 164.474 95.0838
791.642 908.341 1433.83
515.218 504.338 736.304
223.862 195.521 160.414
180.629 165.107 95.9124
181.837 185.71 124.655
56.0148 134.232 12.5519
183.566 192.824 135.153
151.922 -65.8365 235.26
315.008 364.183 439.374
316.166 364.16 439.96
177.479 196.832 137.192
122.411 121.163 9.17229
-286.451 -170.498 613.793
-911.662 -411.264 1277.63
223.285 139.904 83.3706
197.365 176.225 119.316
123.802 126.863 12.2039
121.299 146.157 37.331
231.353 201.075 171.484
172.071 87.3669 23.4736
-61.9007 -65.6642 353.055
1246.17 934.859 1726.15
162.361 -32.9752 188.43
168.856 70.2109 42.6959
-985.85 -1113.38 2295.73
121.35 119.235 9.50241
236.468 205.008 179.328
223.168 195.976 159.683
233.999 367.851 403.117
1654.18 1978.81 3396.79
704.473 628.338 1017.15
344.043 372.712 469.489
882.097 796.262 1347.33
-1816.29 -1215.49 2898.5
18.2501 75.6387 118.361
317.878 408.254 505.292
335.131 366.788 457.086
187.495 110.065 23.4288
187.467 137.738 58.9705
251.447 507.617 607.944
217.571 191.867 150.331
27.9744 156.094 13.0142
222.421 301.136 305.177
294.394 341.467 400.514
223.096 167.854 119.678
187.728 137.388 57.9355
129.967 106.042 17.2216
21.8957 -179.253 474.633
472.211 486.397 700.068
189.247 159.407 89.1906
221.704 206.612 172.765
223.068 318.647 330.366
293.06 409.754 496.184
295.269 341.489 401.798
25.6852 -177.159 472.478
160.515 191.13 117.346
333.774 364.413 455.543
236.841 196.063 165.892
100.923 30.059 142.011
-69.1704 -120.407 446.801
512.914 538.832 799.746
229.745 208.817 179.825
159.16 1261.32 1625.04
247.297 350.209 388.824
198.697 126.002 45.7385
228.863 319.987 336.271
241.414 308.464 326.908
305.504 369.448 448.553
97.7081 -54.2177 265.724
154.114 144.291 46.4341
-405.461 -76.6947 575.184
236.913 201.191 172.553
131.648 109.076 16.5876
-135.647 84.872 198.84
200.348 155.059 86.4251
197.054 191.149 135.948
133.088 188.967 97.3852
366.816 535.894 721.056
232.326 201.408 169.968
212.161 192.509 146.082
54.7635 -205.861 509.94
235.016 189.331 154.085
154.604 144.556 45.3803
159.566 163.083 74.606
223.903 370.426 406.77
311.615 384.32 475.504
518.354 564.84 848.788
473.922 444.488 651.96
50.0533 65.1939 126.874
42.2699 57.0768 143.528
-243.882 -66.5962 480.799
229.381 205.01 173.076
188.25 152.481 74.5464
-92.7801 -40.6637 360.331
233.65 311.278 328.242
336.377 363.771 461.591
477.033 445.482 658.168
1244.51 1207.06 2187.07
197.874 169.568 103.874
177.194 199.09 134.729
1243.78 1613.77 2782.74
200.01 203.918 154.399
130.447 -22.8374 213.644
161.008 125.585 18.7679
199.363 171.18 106.369
239.553 359.077 401.935
669.187 1096.81 1716.68
224.03 162.138 106.944
769.745 1261.87 2015.08
-1569.08 -1663.42 3563.27
176.28 193.907 125.94
199.39 129.513 44.9455
172.38 178.181 100.574
219.464 304.849 312.155
227.288 337.65 364.587
697.124 1135.77 1798.3
382.581 398.901 542.49
211.397 200.219 154.606
178.776 194.862 128.187
119.675 153.086 33.2356
124.684 169.851 60.6387
213.006 206.409 164.436
184.334 1541.3 2106.4
129.29 -102.464 336.582
352.785 432.104 575.396
234.398 305.477 322.083
238.912 308.034 328.421
354.91 434.691 581.092
177.783 153.71 66.4212
-376.535 -77.0909 590.864
197.017 195.267 138.466
183.6 201.328 139.701
-6819.02 -6724.89 14093.7
135.41 160.295 51.2539
-266.079 -646.97 1372.56
225.46 194.053 152.661
215.626 193.294 145.876
209.491 440.431 508.662
266.47 860.317 1164.47
121.155 134.393 10.5659
42.615 117.752 66.3767
298.501 64.4965 56.1945
201.494 365.546 393.269
288.323 472.091 601.874
199.446 131.564 44.0408
105.834 95.9563 63.1366
238.475 309.918 332.165
219.122 145.954 76.5273
975.493 807.385 1501.47
1862.59 1196.07 2595.57
253.433 159.91 116.999
185.774 144.235 54.2588
178.829 163.903 79.6079
-31.153 41.0179 226.025
239.881 190.086 154.045
184.703 61.418 70.708
184.716 83.9413 36.982
210.085 181.533 123.741
128.02 115.366 23.245
159.403 194.653 113.867
480.688 472.269 717.679
2788.67 2008.48 4368.74
146.73 164.434 60.8464
368.369 409.285 558.311
213.689 206.204 162.523
219.634 -54.1558 226.159
198.563 156.593 78.9064
188.356 164.133 84.2837
159.88 195.134 114.293
339.138 359.109 466.538
171.663 109.955 25.2284
-1187.54 -1381.28 3055.86
239.62 207.197 178.964
158.366 187.948 102.153
218.585 340.505 368.161
192.316 68.6796 58.6793
192.208 121.417 27.3915
41.957 -117.63 429.212
159.784 195.051 113.473
8.74738 144.866 51.6664
240.562 192.08 156.323
321.874 397.558 516.313
-54.2477 98.3545 160.058
10.2014 146.702 48.5968
242.812 203.86 175.417
197.746 178.434 110.072
196.764 193.803 132.873
262.727 361.989 427.997
547.246 698.309 1108.7
402.151 416.719 593.934
224.94 206.975 169.45
858.771 1196.7 2055.87
198.421 157.957 78.6882
-63.1642 94.6723 173.369
-117.463 76.7524 232.997
225.044 295.832 305.212
228.269 304.902 321.054
152.615 -30.2701 237.954
-237.451 -555.256 1275.78
-261.261 -133.113 642.525
159.039 168.3 70.2308
162.119 181.129 91.7655
329.82 351.954 454.402
84.3007 132.077 30.5298
485.702 1209.4 1871.96
46.8849 -179.867 535.217
206.357 185.163 123.611
-602.181 -353.507 1193.86
248.565 189.489 155.462
242.691 197.861 164.891
374.127 524.629 749.799
231.414 182.896 134.798
221.413 195.171 147.802
214.494 208.257 163.917
243.473 305.798 332.655
226.543 184.564 134.246
170.512 128.621 23.6308
158.709 154.071 45.9858
242.074 435.134 533.05
255.42 328.286 375.133
296.947 333.6 408.495
488.775 432.416 678.175
232.874 199.171 160.477
161.613 135.271 21.2799
151.069 93.9771 53.4467
878.475 631.862 1228.03
96.5562 126.88 35.6696
139.366 196.578 99.3415
239.174 311.259 339.458
635.439 1172.07 1929.81
-291.122 -471.978 1210.7
239.667 205.383 173.781
202.919 128.768 31.0319
160.084 133.176 21.4371
108.15 182.357 57.4232
270.535 319.065 371.299
209.723 116.666 34.1845
129.267 -9.8791 232.574
529.948 573.908 930.928
46.4666 151.751 28.7842
221.092 207.683 165.799
170.975 130.876 24.1235
150.378 145.426 24.3057
127.336 177.17 60.2628
219.652 293.082 299.658
461.739 -466.589 752.286
322.409 352.027 455.863
205.029 173.117 100.971
175.719 148.132 43.4565
224.358 196.595 149.848
220.573 206.428 163.095
72.6097 175.088 22.572
297.244 331.891 409.104
319.386 349.272 450.456
226.604 185.358 133.075
197.053 198.071 135.068
225.056 510.095 648.458
258.549 315.934 360.36
489.966 427.758 680.915
200.934 179.973 108.446
181.589 193.767 118.464
174.535 197.32 119.767
1630.74 3585.58 6418.81
7971.26 14769.8 28159.3
-259.349 -557.682 1351.55
219.008 182.284 123.051
197.914 177.68 102.66
227.208 352.565 399.957
289.285 454.839 601.71
688.095 525.233 961.092
133.207 166.751 44.813
182.396 193.925 118.581
179.269 175.943 87.7528
171.127 182.76 93.615
331.465 413.255 562.776
379.759 458.159 664.804
531.956 507.92 839.228
-3438.71 -1512.15 4868.72
121.475 145.622 12.8626
118.974 143.17 12.6491
234.604 299.969 321.329
236.06 357.655 415.26
247.169 311.879 348.434
295.249 324.676 399.114
468.766 541.713 857.954
637.047 496.615 890.479
379.576 457.949 667.907
240.774 202.311 167.491
421.184 390.489 585.24
189.312 181.734 101.722
202.093 339.664 365.793
225.381 298.653 313.922
244.699 203.423 171.509
240.863 198.692 161.414
185.962 125.6 30.1892
-4.93481 26.81 272.309
262.689 320.892 373.732
388.03 354.377 507.113
224.144 195.799 146.013
216.867 208.52 162.122
198.992 395.76 455.736
113.574 97.6233 83.7207
-44.3464 165.364 73.091
78.5824 -190.148 576.145
136.745 78.2628 101.32
141.763 104.336 55.5956
94.9758 59.6983 158.038
189.529 180.716 99.0873
214.828 302.578 314.309
316.728 338.823 438.174
189.852 200.044 130.651
166.293 18.4858 181.911
174.288 139.13 25.3791
111.793 191.062 66.2826
194.342 354.061 386.146
211.407 319.74 340.646
2080.34 4473.27 8351.02
342.905 350.94 475.58
199.624 164.141 77.417
194.312 201.031 134.681
156.749 192.727 97.1023
39.9262 179.736 8.72902
280.814 336.052 411.978
305.203 398.553 530.658
224.223 168.332 99.506
340.659 349.199 472.183
215.151 208.232 159.395
198.076 177.503 97.6411
248.023 367.683 444.176
359.719 470.327 685.573
374.859 396.075 572.44
-369.979 15.8616 534.733
198.056 171.214 86.6171
186.018 203.404 132.303
198.903 160.458 68.9634
169.347 179.346 81.3387
209.776 326.365 352.041
83.1613 -36.9932 334.519
318.36 613.339 900.521
113.632 101.788 84.1259
252.52 182.88 140.495
233.767 377.651 453.606
76.0006 140.134 45.1117
241.734 304.57 336.867
363.877 527.736 789.585
-688.111 -804.472 2121.89
32.9914 86.4104 163.488
1017.89 661.575 1437.64
49.3475 128.617 82.9185
252.87 451.569 591.643
165.638 199.815 111.781
844.36 873.016 1686.6
1381.18 1121.87 2455.2
132.677 146.509 16.7173
-70.5062 158.811 111.613
250.538 103.291 49.1424
198.445 172.716 86.9828
887.895 1118.84 2136.47
1263.1 1020.28 2215.63
127.695 131.013 30.2119
-959.326 -1165.03 2937.54
-325.455 41.916 478.576
217.357 169.1 92.5461
149.569 101.151 67.2872
156.982 151.343 22.7304
242.36 330.345 382.706
267.908 353.721 439.218
349.071 389.362 553.168
358.792 395.145 569.388
379.582 364.165 530.726
213.84 184.869 116.563
185.638 163.029 60.7983
204.674 137.262 33.5675
201.755 160.338 66.3584
172.985 195.063 106.607
238.878 326.153 374.177
220.211 171.36 97.0942
199.195 156.666 58.0219
188.614 179.586 90.2178
172.399 195.368 106.469
216.674 312.209 335.854
590.237 810.107 1436.5
352.6 390.102 559.481
221.651 190.787 131.064
72.0949 107.152 111.686
257.107 368.569 459.689
270.728 315.837 378.254
270.385 309.996 368.002
189.382 193.456 113.944
162.725 193.038 95.4793
486.457 626.928 1057.39
205.492 138.671 33.6831
126.635 4.48573 253.535
148.703 100.655 73.2317
22.2491 21.9256 293.151
242.506 136.501 50.5366
179.57 181.558 86.225
115.69 169.417 22.4902
238.912 342.876 404.786
269.193 316.806 380.012
1843.11 2594.62 5378.54
355.364 359.215 511.338
197.52 196.567 123.766
198.844 365.792 418.108
235.335 343.477 404.081
262.273 332.327 402.845
292.51 339.742 436.064
222.085 163.822 82.9833
804.316 574.568 1189.11
188.832 185.7 98.2459
105.766 -299.469 804.17
3174.48 2872.24 6800.27
-2842.36 -1767.06 5354.9
232.427 206.183 163.185
235.382 140.694 50.689
179.9 120.05 33.4969
199.245 158.65 57.379
95.6791 115.026 89.1072
94.9966 115.825 88.1703
-60.9399 128.139 172.243
218.338 -129.115 434.682
341.855 905.946 1464.3
208.57 135.521 36.8009
181.301 182.661 86.7232
237.441 317.593 361.929
476.201 520.314 880.602
-5058.95 -3205.2 9431.77
208.859 188.377 115.223
207.919 191.544 120.156
179.459 151.625 30.3739
349.832 1322.44 2210.61
563.431 498.16 903.217
206.363 186.535 109.928
95.2032 116.205 90.138
256.473 383.151 491.495
340.246 476.67 714.024
-61.8057 145.175 146.662
333.768 353.031 491.475
23.3302 -73.0776 475.558
217.596 300.125 318.52
350.246 346.399 491.582
3349.93 2963.71 7196.57
197.452 200.848 128.419
218.225 292.662 305.917
438.503 382.779 618.156
-80.2807 1126.67 1587.99
181.656 102.585 58.2611
930.782 1116.94 2268.71
189.759 198.487 118.266
183.933 107.75 48.0862
10.869 -95.4852 531.218
130.865 151.931 17.8723
1927.46 3769.1 7720.97
201.394 114.385 40.9686
345.001 342.325 483.533
189.971 198.533 117.818
590.876 662.535 1230.76
143.006 -646.628 1438.02
61.7602 14.8485 302.83
36.5923 104.225 159.338
312.98 348.013 472.848
-61.3256 135.328 171.975
-161.191 -445.332 1292.25
141.968 174.972 40.9849
-30.0036 -1138.9 2459.98
-1255.74 -2931.19 6565.75
628.792 705.608 1343
-1043.71 -907.161 2750.72
231.976 209.297 165.702
219.934 199.153 138.804
203.802 204.727 137.591
221.964 311.985 345.223
506.408 577.713 1028.19
47.3021 141.203 87.9831
-224.9 44.9625 454.333
251.959 152.323 75.8251
213.704 140.613 38.2013
191.193 153.486 35.1112
229.58 203.939 153.916
218.318 -246.95 677.046
160.896 151.759 24.756
-1203.32 -504.757 2151.86
189.812 377.768 443.517
164.526 126.145 34.6538
114.347 187.909 42.8016
200.516 204.968 134.852
-217.467 -743.522 1900.55
-258.593 -145.992 834.326
207.415 193.123 117.794
162.52 197.559 94.0562
256.472 440.975 607.959
238.688 303.865 343.572
90.0127 -111.098 526.355
-1362.17 -1417.01 3965.67
547.002 420.931 778.895
109.691 187.779 37.7361
211.249 298.836 315.013
329.825 340.058 475.759
97.2038 24.7871 272.745
388.783 356.659 548.776
225.103 196.933 136.541
138.113 136.245 37.9348
403.398 447.784 728.656
407.938 413.034 667.566
213.462 374.011 456.503
227.722 311.434 350.62
201.422 117.404 42.1736
-1776.46 -1853.9 5111.92
199.296 172.293 71.559
356.361 379.267 569.883
392.674 357.634 555.752
206.891 199.569 127.516
19.0323 151.706 97.8518
273.096 137.389 58.3956
211.697 361.609 434.046
86.5852 -113.574 547.42
118.09 8.32684 296.067
229.717 194.229 133.117
146.847 160.207 22.7837
693.261 895.378 1788.62
-1189.69 -1469.59 4032.57
109.76 175.462 11.3048
220.003 297.875 321.087
327.818 371.068 537.573
45.5639 -103.911 564.293
18345.3 12534.9 36626.3
235.03 185.947 120.528
204.023 141.934 39.0422
170.02 192.618 85.4911
265.749 461.599 666.405
-51.9558 -29.6238 499.964
-2470.88 -841.761 3818.29
436.896 583.647 1025.64
-252.706 -274.096 1114.74
-3.87634 76.494 264.19
-29.9563 107.197 224.918
-531.834 -212.132 1203.73
329.037 370.569 541.395
423.373 421.619 708.382
-436.934 -48.7634 823.67
275.566 314.122 394.485
213.071 193.962 118.461
-42.6277 98.9822 252.567
245.701 314.791 374.124
494.247 406.158 733.379
316.031 879.215 1510.78
307.268 326.832 443.283
62.1069 66.2628 239.828
724.746 524.58 1134.01
976.805 606.601 1479.07
219.4 178.944 93.4471
164.917 118.35 63.9216
144.402 157.015 23.0574
130.804 166.78 17.8787
-304.306 103.02 442.971
320.301 -272.33 703.267
268.605 391.233 539.938
199.025 174.264 68.6368
190.347 100.926 79.9711
162.019 84.1296 133.685
70.9217 98.7005 173.632
514.387 521.388 977.402
232.576 200.846 144.87
395.013 579.787 1002.87
311.297 332.95 460.541
361.818 426.397 680.442
397.151 433.379 720.572
499.914 509.091 945.044
3375.8 2649.18 7268.34
215.733 192.393 115.38
201.75 122.312 43.8148
167.55 119.866 62.6364
176.006 175.238 51.7841
193.626 109.271 64.3176
240.145 348.737 439.705
83.0161 117.329 132.925
244.197 308.745 364.592
216.863 187.151 105.084
-678.649 -366.222 1662.26
-374.886 32.003 649.254
233.688 209.378 161.385
214.623 305.068 335.228
-81.6149 44.165 404.702
-50.8592 87.9889 295.493
243.005 205.093 159.678
192.505 190.276 91.7476
24.6865 149.497 117.688
198.968 18.2232 245.282
161.673 -119.024 546.273
136.184 85.4305 160.079
-131.364 -107.623 748.494
188.956 201.608 110.783
186.136 176.21 58.0058
121.693 149.27 45.14
-1086.23 -348.183 1963.55
223.749 203.345 140.741
198.312 361.328 436.045
246.056 375.329 500.757
110.091 129.787 93.5611
517.794 516.366 992.325
-224.181 -73.7716 759.292
-89.5458 43.5311 420.891
232.635 210.421 161.337
245.802 406.857 564.922
801.802 998.099 2179.54
268.267 353.08 474.937
-3895.94 -2296.56 8066.22
188.37 177.722 61.0107
157.77 168.623 24.3894
145.42 191.911 55.8989
225.029 335.912 407.782
230.798 310.683 361.462
192.221 163.799 35.2849
-217.929 -65.1687 746.194
232.843 210.394 160.771
234.999 77.0323 107.438
122.465 101.002 146.993
211.854 205.99 135.046
202.557 123.024 45.7415
122.417 39.9797 272.305
100.333 83.884 200.491
1200.01 1056.09 2639.72
15255.8 9566.37 30987.7
176.557 178.77 51.5896
203.34 150.262 39.9663
226.77 297.533 333.192
388.878 -1684.95 3592.07
242.982 367.447 489.021
518.274 449.058 873.467
237.992 383.895 519.365
44.2125 -64.4453 552.961
-218.823 -9.18115 648.076
221.301 175.782 79.2831
197.819 197.926 106.029
218.57 303.716 340.242
246.995 330.356 417.72
424.852 466.733 840.098
-5.04503 160.632 132.816
189.034 202.662 108.294
-92.4249 -419.64 1404.25
152.57 183.665 39.5521
92.2427 46.9092 292.119
123.477 155.403 42.4462
63.5215 157.128 86.8786
-184.393 -82.7043 784.377
-820.988 -275.557 1695.55
-39.603 161.348 161.626
161.275 173.439 25.5843
158.035 185.948 47.6087
580.408 714.923 1490.78
375.207 380.823 628.642
210.271 172.953 61.9272
154.573 151.645 29.4355
86.3484 179.309 24.8035
136.726 119.27 110.308
-80.8579 62.2979 405.528
635.426 618.353 1338.91
1441.8 1013 2818.91
148.91 148.366 40.2044
-204.446 10.428 616.026
263.973 320.106 413.597
187.832 185.992 69.6446
225.197 314.531 370.839
228.39 303.116 349.382
154.194 149.72 34.7055
160.469 172.791 26.653
346.256 449.355 754.808
75.5171 150.737 97.0533
401.514 403.815 704.824
433.164 401.282 725.361
239.766 206.107 153.661
227.031 199.225 128.639
205.097 204.259 121.347
203.002 167.316 41.1434
187.035 172.245 38.5092
181.487 168.86 32.58
81.1934 176.66 38.9371
218.245 296.235 327.43
139.21 100.757 153.363
102.826 181.026 12.5082
325.49 342.435 514.352
240.496 205.206 151.93
222.554 371.921 493.355
467.194 580.858 1142.12
939.58 1095.18 2631.82
351.62 383.764 626.272
495.582 463.502 916.368
232.194 305.062 359.111
246.181 309.904 381.148
176.29 132.053 59.7536
170.315 130.75 67.5286
154.092 119.252 105.779
8.99453 160.445 137.809
218.24 294.021 324.145
152.595 53.1902 250.901
258.44 157.194 61.4827
552.359 599.91 1267.65
-11.5078 126.089 232.137
-89.398 99.345 356.085
178.393 351.695 416.822
206.72 53.6665 207.822
150.918 52.0952 258.175
243.758 344.634 456.754
-73.8858 107.308 327.786
200.804 339.904 410.689
153.34 56.919 247.3
-425.854 -533.974 2026.59
-418.267 -119.337 1116.47
198.657 197.068 96.659
171.03 197.172 73.5039
514.557 469.463 961.218
226.682 293.501 331.793
-396.175 -111.73 1087.48
226.054 321.307 392.78
686.055 711.384 1643.45
178.226 178.78 37.9296
178.747 197.654 79.9835
211.186 370.957 490.054
-494.421 -985.631 3106.55
610.989 562.708 1254.61
840.203 660.395 1665.91
187.162 189.223 68.1707
952.673 750.853 1965.74
255.308 305.536 383.93
230.111 191.698 109.961
180.428 179.963 41.3155
28.6948 166.044 119.72
272.448 331.638 456.975
301.215 346.847 515.459
404.863 462.508 861.995
3505.45 2692.41 8485.73
22.7257 161.172 136.538
197.212 316.122 358.288
113.676 112.879 167.193
-419.049 -111.531 1127.56
223.525 412.031 595.981
206.228 145.821 46.6011
180.992 132.764 65.8961
60.9391 68.7421 313.206
3331.22 2534.91 8041.01
136.094 187.049 19.6269
-174.193 -298.978 1344.13
32.5811 162.328 129.033
213.934 608.538 1032.05
188.29 199.885 90.05
-521.47 -996.32 3223.64
487.258 495.553 1016.57
-641.653 -211.194 1559.31
211.775 286.609 305.937
45.3454 -31.4062 557.66
38.7388 164.625 120.658
19.2509 163.079 141.169
335.796 349.291 556.326
208.468 189.923 84.3358
215.742 314.296 372.53
909.766 817.773 2122.31
225.416 208.221 140.375
184.212 113.627 111.195
138.882 187.778 19.6658
235.036 345.629 461.694
61.5257 145.721 146.606
182.704 111.867 117.75
578.17 599.448 1345.04
3155.32 2589.61 8166.77
-502.313 -62.4201 1121.08
249.433 213.861 173.96
200.223 173.595 38.7712
177.505 196.73 71.0271
218.227 355.79 471.526
235.027 192.377 111.722
173.815 186.818 44.6066
98.7281 201.48 11.5647
249.039 323.798 426.021
-1044.63 -693.797 3062.36
156.881 162.353 30.0185
0.498207 124.544 253.99
236.366 210.721 154.611
95.824 -6886.48 16356
91.1315 -24.8164 519.005
217.307 50.0359 234.571
199.56 186.062 63.7909
56.9499 167.347 107.652
187.496 121.318 98.0854
125.11 138.273 114.788
-143.269 -1.25481 680.856
198.221 201.429 97.6791
169.599 159.148 35.298
248.081 388.594 579.479
5870.95 5067.47 16583.5
242.979 210.425 158.572
149.569 189.496 25.0274
-89.0832 -288.581 1311.91
5749.04 5036.98 16461.3
198.34 201.338 96.5525
225.136 307.268 369.663
225.399 307.321 370.027
444.128 499.096 1020.24
406.249 446.014 861.795
1502.29 1287.17 3841.53
68.8659 169.37 97.6017
234.517 316.655 401.221
-647.412 -13.1875 1184.89
207.303 292.862 320.306
290.274 367.319 572.823
-5634.49 -2302.05 11184.1
73.0325 168.596 97.7244
74.282 170.485 92.0959
227.852 311.729 384.361
238.396 198.318 124.024
200.033 181.132 47.7695
-79.2418 22.2006 587.931
225.634 305.895 368.78
262.929 562.71 1016.64
163.365 192.44 40.4663
79.2807 171.303 87.9827
253.558 326.755 445.143
214.641 184.665 68.6695
207.039 196.283 89.477
204.364 202.438 101.75
162.388 191.684 36.884
100.95 153.108 113.516
81.0365 171.303 88.2811
158.313 177.307 29.3327
275.347 360.33 548.683
1425.64 1477.2 4321.33
209.394 180.87 53.3372
203.359 195.364 82.6141
5.73519 118.39 289.63
188.448 198.221 75.153
84.3055 171.272 88.8736
165.188 192.03 37.3857
140.399 125.876 147.855
156.372 175.88 28.4477
222.35 308.647 376.387
377.164 413.63 779.918
193.998 178.954 38.4378
187.006 175.567 37.0076
-93.1155 -135.614 1013.97
161.251 171.444 30.7449
99.8343 -1163.35 3371.62
423.497 786.381 1749.04
-7697.03 -7989.98 27716.2
511 477.724 1073.66
808.994 971.289 2586.79
2004.02 2005.17 6301.33
-96957.2 -58955.7 240155
165.97 174.702 31.2078
57.7953 133.062 215.856
90.4503 169.165 94.7345
74.6093 165.371 119.42
50.6585 160.209 155.319
4589.66 3590.68 12754.9
-186.444 95.5954 545.31
218.118 143.737 52.3669
160.884 189.49 26.2938
248.237 339.308 481.657
1607.92 1683.58 5167.35
-367.149 -259.253 1614.06
42.4664 157.883 172.092
31.2171 154.537 191.942
203.689 163.656 43.8822
7.22674 71.6878 425.454
34.4369 120.339 276.473
215.247 304.218 363.173
271.926 356.945 552.211
160.627 126.878 138.592
221.434 311.91 389.319
-740.843 -525.81 2678.94
-256.938 -79.1547 1071.71
173.121 179.802 31.7171
158.152 188.509 25.5196
71.22 136.102 205.371
58.1256 160.431 156.477
224.452 300.469 364.157
135.371 81.0823 283.152
-34.6281 9.09334 637.45
131.901 162.594 80.0486
222.874 143.005 53.7414
170.922 170.458 32.6614
174.948 192.825 39.6448
-4.80023 29.6125 560.538
244.833 320.613 438.108
673.371 395.219 1059.86
210.197 202.723 99.5218
122.851 124.551 190.239
61.6452 160.196 159.715
4013.07 2906.34 10919
210.464 192.576 73.0626
112.76 174.574 72.3863
-2457.47 -3108.17 11194
88.84 146.943 168.683
1111.56 1288.66 3834.73
91.2574 168.115 111.712
119.448 176.799 61.0003
217.108 311.822 389.763
211.767 190.25 67.0346
202.873 156.976 44.264
114.815 172.972 77.2447
200.587 176.609 40.3096
121.516 146.339 141.098
206.057 290.361 323.473
263.529 374.058 602.665
-1022.01 -1339.59 5224.3
-471.597 -680.569 2934.41
355.078 503.261 1039.87
527.144 551.346 1344.17
-1082.99 -674.848 3559.4
-160.639 98.5253 561.752
201.664 200.304 80.7384
221.737 -87.2422 663.244
183.658 135.444 110.565
184.709 158.533 48.0732
121.573 174.993 69.8206
239.683 344.738 504.618
200.401 189.381 49.7529
179.483 131.019 128.608
96.3092 136.69 200.228
66.874 123.472 266.282
-93.3454 82.6206 542.678
125.053 175.597 67.02
137.17 195.231 16.8584
221.481 316.454 411.825
-58.9973 -39.2901 837.195
76.9488 127.366 247.952
217.385 176.609 46.6094
187.436 183.611 35.5517
183.676 137.566 110.311
185.728 173.414 36.0974
107.995 144.143 172.435
225.836 329.598 453.656
-42.9837 -32.8748 811.803
156.593 188.742 24.0548
792.066 1094.39 3130.56
365.647 348.782 654.611
40.1434 35.0007 543.299
58.3688 93.2916 365.531
-208.826 -23.1219 967.349
201.658 174.324 41.4439
158.813 189.914 24.5424
492.108 804.911 2039.34
-56.2973 -134.999 1115.24
61.8013 116.054 302.961
1067.87 643.971 2217.91
176.625 180.122 31.629
-354.293 -466.094 2353.21
101.044 123.158 244.877
492.432 486.05 1178.1
-1436.04 -693.505 4167.39
1038.57 477.524 1747.18
195.863 154.73 57.7602
85.8934 80.9485 381.585
111.236 139.066 193.017
-76.8575 104.252 494.552
199.854 138.586 99.5986
125.632 158.724 124.413
-7.16072 132.117 343.109
252.504 687.591 1488.96
209.241 30.8537 391.794
120.164 143.268 175.091
-483.019 -587.925 2882.43
-55.8394 59.9076 602.957
458.957 -1129.6 3381.33
201.982 162.63 42.8278
73.7733 74.3459 422.067
199.832 185.081 39.5332
655.972 440.028 1247.38
-284.813 -17.0491 1076.78
225.748 206.092 114.683
67.1678 17.582 594.575
254.475 384.527 651.971
250.787 215.144 167.699
-56.9106 40.0111 671.109
200.188 197.455 60.9823
147.837 183.674 36.3934
0.655777 -50.394 868.399
-649.146 -484.087 2829.68
131.96 146.317 161.829
-91.9517 184.713 302.453
105.11 58.3124 444.861
85.4576 121.995 284.649
-737.322 -827.233 3929.43
150.563 182.208 40.1584
-145.797 190.785 349.524
64.3547 23.5357 595.924
201.752 197.532 60.2043
102.736 62.771 443.365
207.432 182.65 43.505
453.279 613.454 1555.29
-45.8714 52.0172 645.973
230.485 194.906 83.9479
217.859 202.835 92.6342
1139.31 2683.83 8431.64
759.394 650.675 2029.95
434.262 347.98 767.396
213.962 212.942 117.111
216.269 202.026 87.5354
205.02 190.717 40.9843
514.195 679.256 1844.05
203.928 196.882 57.409
186.161 191.062 33.2335
119.741 122.447 261.555
120.542 167.062 128.385
148.557 217.225 52.5247
196.377 310.839 387.297
164.468 130.942 187.19
125.1 94.4197 342.585
51.0697 76.5356 483.093
208.497 187.754 41.4354
124.007 129.875 240.748
-112.554 -30.8727 1006.09
627.091 575.326 1699.12
576.024 434.029 1214.3
202.844 183.464 38.7518
141.33 113.375 273.526
77.7848 100.14 390.565
202.57 283.019 314.317
236.049 288.553 371.55
211.503 179.639 41.3228
201.758 180.799 37.1286
196.391 290.342 329.99
151.817 142.939 178.089
393.113 342.613 734.404
86.5609 93.919 411.918
43.3547 115.836 397.122
-97.8585 72.444 704.986
394.275 321.884 673.061
68.9282 104.308 403.308
291.627 406.654 812.547
-90.421 -84.7943 1192.04
-48.8831 -10.8162 910.054
201.147 184.973 35.1734
145.454 169.942 106.651
174.911 203.296 33.5991
287.71 320.229 540.893
201.618 300.451 371.762
120.097 138.3 241.164
98.2657 149.503 233.197
1431.82 1231.44 4862.63
456.281 448.539 1162.72
229.408 207.988 114.722
189.804 305.475 374.263
-24218.9 -29152.1 124060
779.473 517.474 1794.78
161.754 142.231 182.288
21391.9 17108.5 81207.4
2070.73 1692.49 7228.18
-96.3556 63.139 768.951
605.922 500.637 1538.9
229.612 -41.7793 692.996
165.262 191.514 22.5539
144.506 210.712 12.7115
185.833 185.723 25.7422
212.428 285.956 343.804
71.7406 71.2603 536.016
850.43 688.604 2478.81
169.746 214.16 54.7316
198.5 286.029 326.621
-67.5848 -31.7246 1059.98
172.649 173.421 75.6851
62.9142 68.022 565.773
202.348 208.913 78.9165
169.211 152.509 150.468
26.1972 159.055 317.907
178.692 160.34 113.842
177.785 180.981 47.6271
52.0337 -4.54501 831.999
224.452 161.568 91.5035
215.783 197.186 148.568
144.998 210.603 105.455
175.393 159.45 135.844
104.7 153.865 203.281
151.07 214.889 120.244
37.1047 59.1105 389.545
111.005 145.463 210.341
123.159 154.707 187.112
93.0508 139.973 233.501
199.242 289.422 330.314
215.665 310.178 392.905
128.922 156.196 182.804
35.687 62.7344 392.027
135.888 157.462 176.738
194.379 280.719 307.918
129.203 130.605 219.898
96.2068 137.057 239.868
146.741 163.956 158.361
305.42 440.634 782.739
149.82 164.916 155.362
147.741 207.485 98.1909
148.18 162.12 161.172
104.921 142.191 227.286
195.322 284.264 318.325
94.3571 110.701 283.905
154.725 164.643 154.119
110.608 141.011 228.171
123.477 149.796 203.798
156.794 153.574 168.98
161.789 157.511 160.162
160.022 166.288 149.137
72.4841 121.931 292.992
-3889.31 -5012.92 16515.5
120.012 143.664 220.103
108.769 125.24 258.408
66.7983 22.5988 17.5136
151.694 112.698 110.076
156.939 131.03 125.156
-33.4176 -36.9044 58.3886
-440.963 -533.577 556.962
54.1261 -2.36436 7.84117
82.6224 30.6167 25.5357
-0.944056 12.384 13.951
160.832 115.063 112.772
160.577 116.06 113.355
163.581 132.854 126.968
114.75 105.506 91.1078
459.601 679.069 635.327
-162.836 -170.478 204.759
98.6727 41.4697 36.4156
168.058 120.304 117.9
-249.099 -373.79 392.386
404.651 1607.71 1344.2
-408.37 -1226.86 1105.34
90.9372 26.3935 20.5767
47.4401 42.3114 19.59
-111.621 -209.087 224.772
127.719 92.439 82.631
136.178 119.188 106.062
-32.8032 -2.07358 41.1215
63.9457 72.4857 46.0586
176.127 122.227 119.675
-29.3102 3.42053 37.6402
123.54 80.8334 70.433
60.8748 45.5527 23.1051
16.1959 -29.5337 50.5195
123.899 50.7862 45.9752
74.7058 131.912 94.7927
1544.72 4619.78 4116.91
75.6369 74.9319 49.075
269.054 372.434 347.111
182.851 124.034 121.467
184.435 140.958 135.365
142.977 113.485 100.144
142.224 114.253 100.52
-44.4365 -180.586 195.133
147.582 101.005 91.3164
53.7769 -249.737 221.681
20.9304 50.8403 9.73195
87.092 77.3029 51.4901
187.737 -6.85355 20.0033
133.113 45.1884 39.6349
150.147 114.764 101.615
51.822 -23.389 42.4751
-42.5096 -28.6031 77.1058
190.772 156.241 148.121
149.019 67.5369 62.2371
155.801 103.254 93.549
355.346 619.57 580.051
1783.9 2546.78 2621.76
151.473 85.7227 77.0195
199.383 28.4723 44.9311
166.866 152.047 136.008
160.209 75.0501 70.1381
173.271 157.712 142.568
116.945 96.0913 73.199
278.853 399.008 376.365
98.1883 53.2228 31.0267
115.698 96.8148 72.8669
3112.81 4769.54 4930.25
165.277 105.625 95.9782
158.42 70.9886 64.7999
98.4184 22.0941 4.53516
-72.8933 -124.042 173.572
174.413 118.872 109.515
180.872 168.444 152.755
136.148 124.914 101.233
303.087 569.82 530.272
-94.4737 -57.482 129.022
178.434 147.114 133.389
179.186 159.328 143.931
109.893 22.2777 5.44806
184.106 139.887 128.974
184.571 153.872 140.938
236.077 412.002 376.275
3145.41 5206.18 5402.98
-362.274 -637.394 711.126
-3093.65 -3526.76 4072.79
-2063.1 -3866.04 4022.98
216.547 169.219 164.204
75.2275 -88.826 102.664
127.482 77.5132 56.2502
182.802 122.715 113.028
179.373 85.231 79.5497
4.34248 42.2991 16.3884
191.39 173.954 159.275
112.75 -2833.75 2443.56
148.835 113.248 92.5801
-35.2024 -133.331 181.841
190.616 165.701 151.589
726.764 939.152 999.649
-1659.33 -3476.04 3619.58
23.9404 -60.8929 100.921
140.492 83.5665 63.2273
92.686 -84.2603 98.2368
190.621 126.764 117.406
167.345 163.115 140.848
197.082 135.683 127.018
191.001 170.893 155.334
162.267 137.011 115.879
110.059 112.783 76.6277
301.076 424.882 414.804
-69.6671 -310.344 356.344
-16414.1 -21779.5 24800.4
196.379 157.35 144.785
162.583 138.436 116.488
394.192 1162.82 1094.37
311.417 533.724 514.458
143.541 -11.4367 21.8289
-64.8562 -307.595 354.125
88.0863 44.2093 7.66338
32.5141 -71.8278 113.796
140.258 -20.4655 31.9516
-101.028 -357.973 413.555
-706.247 -1034.27 1220.79
196.271 179.375 163.414
140.371 144.043 112.332
133.87 -56.5625 68.4459
132.948 123.315 90.9419
31.6153 46.905 12.6547
159.288 0.263632 12.9677
171.637 104.184 87.164
58.124 -5.63362 50.8269
178.275 159.287 138.469
299.544 500.676 486.099
933.787 1453.69 1561.65
229.631 191.862 185.603
122.35 96.3349 62.1679
196.281 180.187 163.236
140.803 146.044 112.987
421.469 530.531 556.967
172.443 104.006 86.315
-196.714 -880.279 928.539
98.5934 2.23582 31.4531
52.3257 -8.77942 57.8272
233.871 342.589 322.252
157.041 -9.23931 21.4541
179.815 89.3058 75.0928
179.815 102.681 87.1322
125.556 142.749 103.804
-451.082 -185.974 398.183
213.253 163.011 153.214
148.22 144.567 113.069
149.911 152.011 120.404
71.2866 66.9826 15.1083
151.986 134.726 105.138
-8.52178 39.9687 38.5943
-1615.31 -1028.69 1586.31
196.773 161.26 145.141
184.01 154.829 134.69
145.925 111.926 81.8227
112.739 1.66472 30.7082
-66.9606 -225.406 302.462
190.416 141.039 124.147
184.638 155.949 135.643
2751.29 5265.93 5728.12
-892.78 -1580.85 1839.62
189.703 141.488 124.065
329.41 440.31 447.924
395.799 515.968 541.216
116.795 10.069 23.25
155.638 148.989 118.166
444.025 758.519 782.173
183.556 -175.925 170.606
1413.63 2557.64 2790.88
197.111 149.059 132.894
190.653 164.475 144.717
40.4544 -378.242 410.156
109.558 -72.4931 103.276
736.474 971.895 1088
196.067 175.526 156.699
116.31 134.927 89.9242
234.428 333.306 316.43
-10.7111 -569.76 608.805
334.904 475.701 485.397
146.544 76.98 46.3823
319.121 437.267 444.934
197.028 143.727 126.777
151.679 47.6971 20.1787
164.959 124.663 96.8824
87.9552 87.611 33.7864
87.1319 128.258 71.3907
256.83 374.616 364.322
362.351 581.678 597.391
431.361 632.491 670.583
-37.6076 -284.003 361.872
46.0337 -55.2294 116.477
11.9224 -40.2933 115.175
170.567 151.558 123.396
73.1755 -363.949 396.879
487.084 770.089 822.44
-209.079 -138.793 291.284
167.34 74.9109 49.5415
170.82 109.543 83.4542
126.644 117.162 74.1169
136.643 143.073 102.254
348.713 551.114 566.127
549.218 898.187 968.325
74.8245 77.4634 17.1508
581.595 1353.16 1413.01
355.195 567.536 585.112
542.078 896.586 966.417
71.6802 71.7926 9.90517
-256.91 -188.053 359.141
178.226 158.761 131.917
175.883 146.682 119.488
147.964 150.651 112.74
533.057 628.662 712.832
220.456 180.49 168.109
56.1945 35.8316 31.8336
-341.401 -657.173 843.536
178.173 78.6676 54.5702
171.484 7.89701 15.836
112.664 56.5977 8.39144
321.864 411 427.144
-8.65521 -287.295 367.947
1435.03 1933.32 2310.58
21.452 87.5027 17.3375
1629.86 2837.66 3258.05
179.941 112.615 86.7401
101.976 -396.337 433.163
24.9419 91.3446 17.1583
321.573 409.683 426.981
173.71 14.2187 14.0563
71.6573 -127.303 186.661
158.113 163.978 127.38
-1081.18 -1124.25 1598.12
764.437 856.743 1032.55
190.459 139.807 115.737
189.96 155.277 130.579
86.0776 87.3701 24.4488
144.314 115.892 74.3267
19.4603 -285.418 365.468
648.861 1094.62 1226.04
546.675 699.844 800.652
453.111 540.008 608.147
190.566 140.26 115.457
146.169 86.0573 45.1839
167.303 174.707 140.104
316.782 427.609 445.82
199.276 53.0937 32.971
-743.121 -1400.47 1760.82
383.479 504.064 547.666
-87.9376 -1.32109 132.852
195.975 182.784 158.664
-62.1727 -760.761 872.238
88.5297 -137.324 199.383
135.023 148.308 100.597
303.202 388.318 403.487
17.8299 -109.139 200.673
113.81 135.926 79.588
-359.157 -437.826 675.208
163.502 121.083 83.9837
110.725 -141.426 198.327
396.398 479.723 532.642
25.6179 -95.8461 187.124
515.824 691.609 791.871
40.3275 -69.657 156.049
25.3703 -24.5752 116.993
119.306 -110.46 166.283
142.424 19.1178 27.4916
106.864 79.5873 18.8448
105.738 82.7358 21.3034
-6006.96 -10949.5 13472.5
-141.829 -323.834 485.075
180.005 178.795 146.737
101.54 -365.35 431.856
886.149 1846.35 2105.68
196.263 187.491 161.804
496.546 830.59 930.062
389.885 470.032 524.011
-0.405144 -236.537 344.939
126.19 101.699 47.0139
178.914 170.582 137.51
407.174 836.672 902.501
330.764 529.491 561.262
148.441 -41.8444 89.9393
183.311 151.743 119.856
182.628 152.404 120.004
145.254 151.021 103.535
410.516 844.496 916.111
-4.17706 -82.5173 195.187
-78.0226 -94.8864 238.175
-842.763 -804.655 1271.66
139.84 112.507 61.3373
330.364 530.353 565.487
182 134.627 100.718
189.373 122.634 91.1354
188.936 123.262 91.6015
181.45 135.513 101.113
-1292.13 -1251.36 1920.53
160.605 175.397 133.261
19.9782 -255.256 367.84
296.001 395.063 414.762
187.322 30.128 15.972
177.062 -244.703 294.475
-98.407 -838.159 1020.43
198.045 107.983 78.2488
127.771 31.8849 29.2756
2.38471 -74.129 190.346
-96.6635 -114.144 272.362
-471.584 -457.832 782.639
1236.85 2212.75 2688.8
200.229 27.0221 18.8677
152.544 121.018 72.1675
154.534 132.469 84.7119
76.7075 122.139 41.8471
325.858 440.809 476.641
131.611 -26.9805 91.7928
163.21 133.498 88.8695
-54.9762 -18.2049 160.265
172.316 173.686 134.214
-92.3002 -1087.91 1299.03
-116.61 -135.122 309.772
-177.923 -58.9961 255.39
226.639 192.228 175.917
378.148 702.005 776.696
-132.006 -151.175 336.069
214.818 170.193 147.482
172.114 136.287 93.7763
1729.62 1678.39 2375.34
169.694 111.4 66.0966
-129.269 -149.102 335.19
137.871 139.81 82.656
137.356 142.861 85.6747
381.653 711.002 791.237
-200.26 -234.106 456.482
173.053 142.239 99.7053
136.717 139.542 81.5555
382.311 528.36 598.44
177.525 91.3822 46.6805
176.605 93.9993 49.0853
149.307 168.703 117.29
406.218 801.022 901.359
344.505 563.65 621.662
333.808 416.823 460.27
638.602 865.379 1069.2
111.853 37.5601 39.398
180.704 127.169 85.5184
133.736 105.064 41.9196
197.737 148.347 115.178
183.783 170.563 133.12
-21.4319 90.2938 40.2568
190.235 156.379 120.373
131.628 161.131 100.55
429.086 635.643 738.599
-157.25 -178.926 389.183
190.385 180.928 146.676
157.588 172.391 123.478
541.581 1285.08 1489.22
124.826 145.262 80.0855
234.777 356.06 355.143
321.137 391.249 430.281
67.1567 36.7571 63.0308
64.2299 111.574 16.8794
284.662 375.482 397.918
190.176 150.157 112.481
136.933 74.0424 6.6203
141.894 96.5633 33.2664
197.592 141.214 105.549
188.895 128.059 87.3156
1253.76 2156.11 2764.44
615.871 917.024 1134.2
391.091 483.846 563.512
797.136 802.874 1087.81
-173.414 -103.827 323.55
96.5064 154.396 75.6442
198.974 74.0025 31.5063
143.587 99.4211 35.374
154.238 140.282 84.8585
2.93838 62.5777 66.4562
76.1577 147.361 58.5376
65.0772 -308.662 449.002
129.665 -18.0437 101.149
147.644 71.9287 8.69753
-85.4343 -32.8639 211.685
357.582 419.374 481.058
197.767 141.3 103.612
169.047 164.757 117.038
67.4337 -289.167 430.908
442.536 588.126 707.095
1479.97 1717.94 2417.73
175.199 158.495 112.205
177.871 180.154 137.475
257.489 333.46 343.144
454.095 607.219 734.977
-268.682 -283.318 576.845
196.741 179.187 144.229
136.22 144.437 78.7289
621.411 1263.59 1544.75
9.72017 28.6543 106.764
36.7191 87.775 28.7081
177.104 171.795 127.081
176.1 168.871 123.169
184.191 175.823 134.28
81.0192 15.1342 92.9203
74.4934 4.73766 107.898
-126.148 -151.571 373.635
-1165.46 -944.381 1731.11
181.899 159.291 114.189
133.231 139.04 69.6226
221.79 196.97 174.439
-783.102 -1940.47 2694.69
-179.119 -456.128 745.251
-1511.52 -1851.72 2922.8
185.372 187.867 147.589
63.9495 -81.3785 212.769
525.803 1180.16 1428.73
294.617 370.94 404.662
170.405 37.8617 30.1999
-33.2136 -122.623 304.326
189.952 156.007 112.94
190.479 189.834 151.619
67.5788 -68.9394 199.416
155.781 176.372 120.556
309.223 423.175 471.889
233.218 159.807 136.268
445.586 525.91 651.268
-105.945 -9.97476 211.136
157.324 157.432 99.1389
188.069 80.3663 24.211
161.276 169.385 114.36
163.502 179.408 126.881
198.645 101.911 53.3466
190.527 184.725 145.02
4977.98 4878.62 7729.06
223.833 191.245 167.392
221.168 118.535 81.9586
143.369 108.773 34.913
156.706 157.022 96.9241
310.623 423.537 476.696
-823.293 -1203.26 1934.36
-55525.4 -72446.7 109845
197.203 161.343 119.916
-1714.1 -1734.14 2963.28
157.823 123.845 57.9793
172.006 187.417 138.449
415.188 510.078 627.123
76.2071 108.587 4.91751
460.95 756.478 938.28
513.275 690.98 885.657
503.577 603.677 778.862
148.957 83.9627 10.9463
754.306 719.234 1030.78
-100.274 -965.388 1344
338.401 446.439 519.276
791.165 745.367 1080.33
225.558 197.899 174.679
217.241 200.307 173.663
139.334 176.5 109.552
462.755 782.573 973.743
229.746 179.662 154.97
164.728 102.932 34.2536
132.003 163.592 90.6413
-480.101 -245.906 677.703
174.846 168.997 116.64
376.367 639.856 767.834
351.673 480.151 567.265
497.215 660.228 848.244
68.2764 137.901 30.0833
306.902 367.317 413.064
61.8317 113.742 7.56439
136.874 154.87 81.5916
406.632 739.133 902.423
122.538 134.341 50.3251
-890.803 -553.365 1243.26
174.945 164.783 110.767
176.133 175.275 123.677
225.617 136.42 100.121
73.7476 21.3951 109.1
-108.185 -90.959 329.281
-545.932 -283.392 765.798
172.326 63.1399 18.2489
314.312 428.647 492.619
668.767 678.556 960.31
180.738 155.982 101.81
399.4 435.746 542.042
28.295 -25.6004 189.596
328.445 452.74 529.548
598.393 1332.23 1722.12
-197.676 -718.181 1135.98
414.877 553.406 693.052
428.925 474.166 603.918
233.285 196.542 175.036
185.219 190.81 145.21
211.875 453.585 476.311
146.307 177.557 110.523
240.16 314.787 321.711
328.31 468.19 550.23
188.643 125.05 66.4756
151.353 169.628 102.852
102.778 161.862 70.1777
198.174 387.477 390.51
-161.612 -624.003 1014.72
-361.344 -446.008 893.511
77.1928 137.622 28.0029
-102.818 13.7571 209.74
243.444 316.922 326.615
-56.5203 -63.7791 283.856
-89.7058 24.6188 191.625
112.906 738.893 782.224
142.012 116.1 31.3231
3258.17 3002.53 5088.95
480.347 492.131 657.826
190.149 160.299 108.488
164.588 188.598 130.871
2377.86 3721.35 5571.02
-4234.17 -5137.24 8587.5
1283.65 1167.03 1883.75
189.352 159.14 106.268
111.456 173.393 85.9616
429.897 656.45 839.711
198.314 128.804 72.5385
151.773 146.369 71.5998
-112.612 -681.35 1086.03
377.467 517.031 642.25
123.176 60.9883 48.9461
60.1142 42.2663 103.098
122.832 166.147 81.6612
344.893 520.403 631.4
50.9843 140.562 14.4362
426.288 504.538 652.071
-172.664 12.4884 255.214
198.902 92.7131 26.7042
731.857 711.71 1062.14
170.045 184.523 127.044
68.8135 -228.697 441.11
160.059 146.502 74.2136
7.0687 100.759 58.6228
-659.928 -337.552 938.584
110.043 130.99 29.6247
-9.61652 -48.3867 256.553
197.567 162.313 111.77
160.706 145.159 71.5863
159.892 145.908 71.9693
-124.645 -287.393 618.813
-1537.49 -1563.63 2943.16
222.978 300.965 299.814
-141.124 -317.413 669.134
1570.34 1259.88 2194.52
148.156 20.7427 94.8326
-3213.58 -3285.19 5997.4
214.328 202.963 170.606
200.585 68.987 22.8047
144.757 12.3429 108.028
-276.19 -487.156 958.121
-6012.25 -6240.72 11196.5
93.9173 79.1229 48.6113
177.441 185.76 129.727
146.103 182.427 109.665
171.188 155.034 86.8827
363.747 559.521 704.004
321.877 429.283 515.438
-10.2904 -136.067 380.612
130.717 154.054 64.5805
123.549 164.124 73.9205
-35.7395 103.193 85.2756
196.527 197.71 154.039
171.237 66.8591 27.8206
182.387 175.324 117.893
-1629.49 -3400.96 5426.45
46.8922 111.479 33.9594
145.03 162.102 81.3011
124.254 164.771 74.1763
119.003 102.922 9.19343
-1803.77 -1241.93 2737.29
-376.174 -455.527 990.019
213.628 184.499 144.71
182.128 170.391 110.195
180.163 156.137 90.4775
144.753 161.763 79.4552
577.335 1185.17 1639.89
189.641 175.968 120.786
241.736 360.07 388.819
-721.026 -477.248 1204.58
301.431 368.185 430.471
188.195 119.092 44.9615
-578.494 -711.909 1442.55
-573.464 -693.072 1415.21
139.584 121.55 22.8224
141.282 124.764 27.6624
274.337 512.065 606.926
-142.893 -299.015 678.38
52.0166 164.561 33.6816
188.415 121.804 47.5284
60.2492 56.6036 105.151
189.591 171.315 113.385
4292.88 12019.6 17939.5
-19.7359 -80.9054 329.659
118.514 171.149 76.0793
196.246 196.811 150.376
-73.4243 -507.904 925.763
-653.273 -1183.69 2125.19
122.993 73.654 51.7245
157.549 175.5 101.664
381.473 598.839 781.82
341.987 427.465 533.17
436.986 497.586 676.116
197.287 176.23 122.951
93.6395 102.487 29.658
117.558 171.758 75.2479
532.847 578.616 836.031
167.307 179.511 111.347
-588.117 -1065.82 1952.3
-12.213 -71.8894 319.537
157.813 147.544 63.2364
77.0092 91.2863 54.9896
167.462 180.185 111.53
168.834 188.109 122.909
476.99 735.852 1023.74
381.716 511.298 670.739
-180.242 -84.2641 429.703
-657.305 -275.421 940.1
374.658 574.118 753.52
1705.38 1260.28 2387.37
105.352 137.804 20.3091
170.291 155.379 78.2193
165.97 138.246 52.4864
-207.904 -105.312 477.672
2948.65 2068.55 4158.08
295.265 345.151 402.906
215.088 193.426 153.314
-12.5017 -109.694 382.364
69.3411 47.8388 123.505
171.209 160.095 83.8509
251.955 575.403 696.014
320.288 415.402 513.519
-555.541 -513.201 1228.93
227.713 187.123 150.882
296.556 345.232 405.283
-8.30718 -100.352 372.312
69.6935 50.3419 122.823
-42.0157 114.899 94.2351
209.04 203.296 162.749
168.989 71.0506 41.3975
424.658 522.604 719.803
184.492 197.28 140.986
75.5267 154.346 22.4823
153.149 189.09 112.425
247.672 317.412 341.52
577.814 1120.17 1635.12
-289.278 -22.0486 421.411
228.598 206.925 177.804
209.749 420.675 464.83
236.062 374.551 415.011
583.119 806.819 1205.42
484.233 623.603 896.684
182.54 184.227 120.937
3438.68 4066.86 7312.82
89.743 48.2432 119.889
147.999 179.89 95.733
190.095 188.111 129.976
-14704.9 -10918.4 23602.2
-395.089 -158.327 676.538
30.2532 89.8223 95.9142
234.412 304.979 318.116
189.489 161.466 91.5575
187.997 152.192 77.5339
9650.74 7353.4 15465.7
-382.069 -145.486 657.661
234.662 304.986 318.792
217.213 190.121 146.758
186.918 126.997 40.3314
122.521 85.0333 54.9192
120.867 86.1925 54.1947
190.902 197.859 142.838
124.645 188.186 92.2716
123.981 188.559 92.2884
185.625 80.3133 27.7918
316.508 354.324 435.466
236.732 196.383 165.772
231.165 195.818 161.854
196.606 199.408 147.657
160.473 190.031 114.069
-82.1813 -455.24 944.118
228.234 332.468 355.644
333.254 392.125 499.892
236.214 196.039 164.785
196.527 194.819 140.617
1875.18 2481.75 4368.84
162.566 173.26 90.2764
2.40538 126.777 66.7288
-53.3376 132.63 89.6983
250.908 175.568 143.115
69.199 -157.422 439.325
153.284 168.406 77.4824
239.031 306.792 325.743
199.969 111.399 24.3121
118.737 167.418 56.1198
77.8994 108.798 52.1063
163.71 174.301 91.1967
327.952 736.616 1001.55
231.942 199.69 166.401
80.9131 111.315 48.4516
234.966 340.487 373.434
239.415 331.042 362.389
2728.03 2273.25 4621.46
436.606 423.151 610.166
678.443 562.616 953.298
177.087 198.311 132.454
198.412 156.227 82.6013
68.5279 65.9043 125.491
222.012 170.092 116.114
-963.453 -1728.38 3371.01
160.418 115.446 16.6773
74.6952 164.121 21.9057
176.686 198.718 131.861
223.048 147.293 82.2381
-1395.31 -2469.13 4737.46
127.295 167.25 56.0969
196.894 198.796 143.234
136.806 182.241 83.6753
302.525 348.385 427.355
437.603 514.284 754.224
429.207 504.904 735.993
182.023 188.175 118.132
182.859 189.014 119.701
277.5 332.225 389.839
132.993 154.979 38.8459
29.0854 104.588 98.4063
200.954 92.3315 29.1766
165.913 51.79 98.1292
116.365 124.901 17.0757
248.168 168.235 125.789
167.447 70.7851 69.305
112.12 191.874 81.0761
239.529 372.557 430.112
-559.119 -515.695 1389.73
-59870.8 -40361.4 96947.7
-11177 -7338.05 18025.3
246.031 308.719 337.368
188.694 158.545 75.1923
229.288 210.658 178.363
182.76 48.7926 96.2562
188.091 136.119 39.8159
137.146 139.377 14.371
337.351 376.583 496.469
415.678 427.821 621.635
198.185 167.372 93.2182
122.06 100.058 55.3743
158.557 193.514 109.512
274.775 340.033 403.585
190.121 185.286 115.521
114.729 184.545 69.152
183.133 51.3564 94.9642
107.041 62.9007 123.438
-144 -545.759 1213.63
451.811 468.377 709.182
155.555 185.375 94.0342
82.061 177.135 36.9657
240.859 314.455 344.952
259.639 327.718 376.801
198.586 136.847 44.6195
2034.92 2474.04 4772.26
80.6982 146.064 12.4228
311.242 365.573 467.521
66.6622 -129.674 451.043
164.322 188.197 102.449
235.152 301.892 322.71
279.489 397.291 498.719
57.9597 -153.769 498.395
161.219 177.996 83.869
28.5375 148.153 43.8427
4704.75 11035 19897.4
102.128 155.321 11.7599
75.0604 120.914 59.4573
223.436 203.562 161.463
284.715 0.244751 121.391
247.233 307.804 340.399
231.24 171.005 114.7
157.538 44.0064 131.162
-1492.86 -1054.75 2882.08
-2151.02 -1557.21 4091.21
5987.42 3297.2 8615.39
299.564 334.687 415.872
234.421 195.977 155.687
159.014 122.598 19.2449
210.72 353.258 390.737
71.6198 32.8069 205.569
140.537 195.749 96.6738
139.469 195.829 96.1384
698.76 538.274 989.782
204.14 107.456 31.2267
157.638 122.542 19.2157
-551.243 -367.092 1234.62
176.592 201.975 128.457
442.369 663.686 1034.18
-95.7132 132.882 152.532
442.577 669.975 1046.39
228.449 183.202 130.264
226.44 190.989 141.36
220.279 207.211 163.612
334.98 545.132 780.448
448.238 501.392 781.14
327.06 394.593 533.209
348.244 357.597 487.212
220.983 204.789 159.88
86.087 186.927 45.8275
-156.906 86.6581 270.445
202.779 346.599 378.416
180.2 183.836 99.7712
3319.26 2016 5071.32
-1034.37 -333.036 1511.76
266.355 -2.84565 150.171
117.7 137.369 16.2078
129.794 162.282 31.8774
177.625 156.214 51.733
-65.6235 28.0406 313.803
-65.3229 32.2182 306.767
207.536 206.582 153.228
176.39 154.691 47.7911
117.346 137.16 18.9491
87.6334 85.6522 123.619
370.953 385.865 554.117
389.66 376.005 549.904
-187.109 -82.4531 579.623
545.55 451.253 776.533
185.869 105.205 30.1387
433.976 422.304 657.452
234.315 210.139 175.42
198.561 367.498 414.464
-119.776 -433.637 1128.48
429.379 420.348 652.878
-398.1 -6.23015 597.149
154.059 191.026 91.0565
4621.08 83760.4 142869
188.642 162.755 65.7196
79.6976 155.931 16.9672
264.014 313.557 367.94
192.889 117.774 28.5834
187 143.733 32.2595
154.928 191.224 91.0152
149.243 180.531 69.1499
145.564 166.092 41.9619
142.257 163.762 35.6384
-72.0043 106.664 202.051
-291.898 -33.4122 584.646
353.458 355.787 499.94
268.43 359.338 450.249
197.891 180.708 100.131
-7786.92 -3482.4 11424.2
645.958 569.235 1059.81
197.565 181.298 100.362
166.049 198.716 109.078
102.449 16.557 244.564
456.972 402.619 652.337
23.6707 70.4573 207.342
356.969 355.487 505.712
198.645 169.164 78.9543
106.842 24.5248 232.208
825.537 729.221 1467.45
163.315 191.628 93.3809
-57.6127 -437.414 1144.14
-81.8705 -325.641 967.186
1659.81 953.485 2422.25
108.756 177.217 31.1593
324.016 370.21 511.438
1854.47 2297.73 4896.55
355.978 354.5 506.541
13.9783 154.48 74.6791
2032.33 1114.62 2981.61
187.73 191.528 108.157
200.706 189.221 112.68
197.566 195.514 121.567
211.182 350.883 403.74
223.125 159.923 76.2396
136.612 54.2818 169.031
113.044 164.915 9.36621
-148.072 -200.962 815.014
188.227 170.859 71.0695
2572.15 1388.61 3861.15
167.873 173.659 61.4547
99.4253 -95.5733 462.697
-1106.42 -733.763 2426.32
-1675.67 -1156.43 3573.5
8455.19 4313.84 13139.8
131.436 191.59 67.3907
254.015 363.817 458.411
708.042 532.353 1073.21
163.768 958.604 1455.99
472.657 671.103 1158.75
455.893 422.537 704.167
211.64 206.787 149.527
662.725 638.23 1235.09
118.917 121.942 67.2504
686.646 520.158 1041.74
156.099 24.7379 216.33
