ply
format ascii 1.0
element vertex 211
property float x
property float y
property float z
property uchar red
property uchar green
property uchar blue
end_header
56.0485 77.1382 39.1203 0 0 0
58.6235 79.3203 33.1838 0 0 0
81.4527 90.4972 34.3243 0 0 0
110.577 112.463 18.5365 128 128 128
104.708 116.167 26.9375 128 128 128
80.2075 85.4492 35.0323 0 0 0
93.0541 109.15 24.1467 128 128 128
106.885 125.829 19.3456 128 128 128
92.5895 128.715 9.61542 128 128 128
78.8878 90.7225 31.6551 0 0 0
63.2211 78.9054 36.1872 0 0 0
127.18 106.36 26.7939 128 128 128
127.945 105.884 25.8493 128 128 128
107.269 119.486 23.5752 128 128 128
124.758 109.688 31.4351 128 128 128
92.5201 128.758 9.60291 128 128 128
73.5928 91.5404 46.2615 0 0 0
77.1163 97.3325 29.054 0 0 0
113.508 111.122 28.0185 128 128 128
74.0151 94.7224 18.9367 0 0 0
95.2693 111.387 27.0827 128 128 128
111.398 116.608 19.961 128 128 128
81.8702 87.738 34.0468 0 0 0
107.54 105.86 20.5556 128 128 128
90.6561 126.608 9.53984 128 128 128
95.2858 129.724 8.29086 128 128 128
99.4159 127.063 2.66214 128 128 128
101.721 116.156 25.7211 128 128 128
61.1905 83.6507 29.9958 0 0 0
109.481 126.905 11.1272 128 128 128
114.085 116.401 17.4808 128 128 128
77.5955 97.9444 19.6374 0 0 0
82.9052 90.0625 39.5732 0 0 0
118.865 107.174 31.6759 128 128 128
121.853 118.628 19.9752 128 128 128
119.534 115.588 22.2271 128 128 128
59.5227 84.716 30.3639 0 0 0
120.838 114.804 20.5207 128 128 128
52.8287 81.4101 32.656 0 0 0
114.968 113.812 21.3432 128 128 128
120.842 119.215 21.2875 128 128 128
59.6663 84.4977 27.4259 0 0 0
84.0152 92.9539 43.0554 0 0 0
59.3028 84.9479 30.393 0 0 0
85.7604 103.767 15.1285 128 128 128
93.2812 112.064 20.0275 128 128 128
118.627 107.327 32.1036 128 128 128
60.2938 76.9968 40.7196 0 0 0
98.5451 100.685 20.666 128 128 128
97.9628 100.972 28.5539 128 128 128
72.0346 91.8119 27.5075 0 0 0
64.9131 80.7745 33.1459 0 0 0
96.6403 102.111 23.7239 128 128 128
79.0388 89.6655 44.9223 0 0 0
90.5079 105.508 21.8442 128 128 128
109.69 106.41 22.5831 128 128 128
98.8595 92.7258 43.7746 0 0 0
84.0466 102.401 13.5556 128 128 128
82.9824 101.823 15.5435 128 128 128
83.7153 101.933 14.4578 128 128 128
101.886 115.237 12.6802 128 128 128
83.7007 100.462 13.7879 0 0 0
95.716 112.751 21.3465 128 128 128
64.6154 93.8527 0.784398 0 0 0
99.7067 105.784 23.3738 128 128 128
100.574 109.377 13.757 128 128 128
111.287 129.813 10.1962 128 128 128
96.2835 112.893 18.1359 128 128 128
75.119 112.663 6.52385 128 128 128
102.235 102.987 25.8267 128 128 128
90.2288 88.5367 40.2534 0 0 0
122.072 114.605 22.2022 128 128 128
66.7608 92.2035 26.036 0 0 0
56.0418 80.1324 26.0975 0 0 0
123.094 117.175 27.3992 128 128 128
61.1556 97.1736 6.52003 0 0 0
96.7832 112.875 23.1514 128 128 128
123.993 116.636 22.4636 128 128 128
57.1734 82.5171 23.9636 0 0 0
125.07 115.226 25.2169 128 128 128
70.5002 102.974 9.73302 0 0 0
56.1315 83.6497 26.0243 0 0 0
107.528 104.172 27.2467 128 128 128
99.7244 104.676 24.3704 128 128 128
103.663 110.928 13.2404 128 128 128
115.805 101.704 28.5619 128 128 128
82.7428 98.8739 27.4954 0 0 0
72.011 86.4707 51.505 0 0 0
101.359 113.562 16.4172 128 128 128
99.5945 104.632 26.4695 128 128 128
108.033 132.968 13.6164 128 128 128
93.4652 126.296 10.8779 128 128 128
98.8774 124.717 13.1309 128 128 128
116.169 104.229 23.7497 128 128 128
101.237 112.566 16.6591 128 128 128
75.6084 89.9993 34.9711 0 0 0
85.347 104.703 13.4926 128 128 128
78.7439 99.4888 10.2977 0 0 0
110.616 106.335 27.3258 128 128 128
73.1307 93.3567 34.3013 0 0 0
55.7088 76.8427 28.9939 0 0 0
83.1821 103.294 27.7261 128 128 128
85.2298 113.387 8.89687 128 128 128
84.0368 110.427 9.9012 128 128 128
110.9 101.909 24.1533 128 128 128
94.5317 126.447 9.9869 128 128 128
82.0661 111.642 14.5594 128 128 128
82.2103 102.088 26.7403 0 0 0
75.8013 89.246 32.7801 0 0 0
73.9836 91.0586 34.6741 0 0 0
110.585 109.331 26.409 128 128 128
52.2982 76.4947 32.9659 0 0 0
86.6539 99.6129 28.2328 0 0 0
103.412 124.652 19.3407 128 128 128
85.928 111.157 6.09163 128 128 128
98.7406 123.918 12.9481 128 128 128
87.6134 98.2168 26.0122 0 0 0
76.1518 100.353 14.8721 0 0 0
82.1397 113.971 12.8473 128 128 128
91.3456 107.744 15.8912 128 128 128
116.884 102.899 31.4083 128 128 128
88.3004 99.1963 19.1426 128 128 128
93.4485 103.824 27.1202 128 128 128
102.544 121.546 6.64755 128 128 128
103.303 132.479 1.69833 128 128 128
58.3739 82.059 33.5289 0 0 0
117.103 100.897 32.0502 128 128 128
86.8227 103.417 7.73733 128 128 128
92.477 105.228 30.681 128 128 128
75.5205 89.6421 32.3403 0 0 0
105.704 130.968 3.25639 128 128 128
72.2028 80.9029 48.2502 0 0 0
64.2296 90.1097 27.5417 0 0 0
110.824 105.166 40.8669 128 128 128
57.3432 83.1735 36.2785 0 0 0
66.7171 90.4626 9.85124 0 0 0
83.491 97.0752 34.7744 0 0 0
102.038 132.107 5.28176 128 128 128
70.7405 98.817 13.3603 0 0 0
70.7685 95.7023 27.7115 0 0 0
90.1997 104.391 26.5259 128 128 128
65.3059 84.9277 32.0231 0 0 0
92.2926 121.103 11.5715 128 128 128
87.1847 113.743 11.8868 128 128 128
88.3098 122.708 10.4834 128 128 128
94.1843 112.526 14.4209 128 128 128
90.6827 96.175 40.949 0 0 0
74.4311 94.5216 10.8122 0 0 0
64.0171 91.4267 26.9544 0 0 0
88.9373 112.477 9.6961 128 128 128
91.1822 113.643 7.72474 128 128 128
90.229 114.671 11.8706 128 128 128
59.2462 80.4828 35.4125 0 0 0
58.9448 90.2585 2.27261 0 0 0
67.1647 93.1424 23.4314 0 0 0
116.006 121.862 14.7293 128 128 128
99.6098 100.85 22.9146 128 128 128
60.7872 94.3537 0.0600144 0 0 0
60.0207 88.0667 21.9618 0 0 0
71.7647 82.082 43.5692 0 0 0
86.6014 100.414 31.0807 0 0 0
114.574 98.3851 33.736 128 128 128
88.8041 127.447 3.31682 128 128 128
61.1143 91.6134 4.19557 0 0 0
90.1175 126.608 1.21726 128 128 128
60.0401 89.1398 5.3132 0 0 0
107.298 97.5131 41.0565 128 128 128
97.2528 121.429 15.2599 128 128 128
61.4046 87.7461 8.43955 0 0 0
77.5043 99.3221 15.0888 0 0 0
95.3995 94.4063 37.0993 0 0 0
81.0273 97.8192 20.3378 0 0 0
122.077 114.602 22.5567 128 128 128
100.528 99.2331 30.4521 128 128 128
81.5974 84.7552 63.6513 0 0 0
91.4271 105.572 23.4754 128 128 128
91.8832 117.512 9.64168 128 128 128
103.388 96.0629 37.3079 128 128 128
49.8517 81.6479 21.6607 0 0 0
77.2779 101.539 20.3064 0 0 0
96.2417 126.864 2.70356 128 128 128
66.7409 89.4412 29.7928 0 0 0
107.591 102.597 40.9773 128 128 128
65.941 90.4589 32.423 0 0 0
65.7162 96.9062 0.436073 0 0 0
101.133 123.149 14.8369 128 128 128
84.8144 111.568 14.5639 128 128 128
98.9659 102.959 35.7379 128 128 128
91.1171 112.926 19.3254 128 128 128
101.006 123.228 15.8654 128 128 128
84.0483 99.9265 17.4154 0 0 0
92.8263 110.117 15.232 128 128 128
96.4684 116.514 15.0419 128 128 128
55.3812 81.9648 33.3506 0 0 0
110.601 95.0968 35.8198 128 128 128
112.112 101.086 32.9014 128 128 128
100.75 116.593 10.5173 128 128 128
112.927 99.7466 30.4574 128 128 128
104.046 121.344 11.0637 128 128 128
86.7311 131.588 4.28799 128 128 128
97.9801 115.499 12.0559 128 128 128
102.665 102.128 33.9454 128 128 128
89.6664 90.2788 45.5047 0 0 0
102.937 94.5601 32.6959 128 128 128
75.9672 100.942 20.9826 0 0 0
62.0151 91.0686 22.5712 0 0 0
75.6022 102.143 15.7381 0 0 0
89.9629 127.947 0.507142 128 128 128
66.2837 94.184 15.933 0 0 0
65.8291 89.3355 18.8415 0 0 0
85.2647 95.5633 14.1616 0 0 0
65.6014 66.3098 20.0672 128 128 128
65.4455 66.4268 20.4295 128 128 128
87.3184 82.8435 24.8321 128 128 128
67.4709 69.6025 15.7361 128 128 128
87.9135 90.0566 25.0027 128 128 128
84.4493 87.8528 19.9942 128 128 128
97.0695 106.24 17.328 128 128 128
69.9323 70.1793 23.0886 128 128 128
89.7295 89.2644 18.9359 128 128 128
83.7153 91.6167 16.9371 128 128 128
94.8166 127.406 6.2739 128 128 128
95.7149 107.273 18.0328 128 128 128
96.6435 106.888 16.3702 128 128 128
77.4615 91.6246 12.4808 128 128 128
113.626 110.075 27.3136 128 128 128
94.5468 127.49 6.51872 128 128 128
115.208 109.496 25.2935 128 128 128
105.352 107.371 23.4453 128 128 128
99.8172 108.186 19.7242 128 128 128
67.4541 77.0721 17.6178 128 128 128
113.008 113.93 22.8622 128 128 128
94.758 93.3351 28.9976 128 128 128
81.8022 94.3269 11.8869 128 128 128
105.98 107.536 18.7941 128 128 128
66.3944 77.4668 16.5931 128 128 128
65.8148 78.0087 14.9425 128 128 128
89.7938 86.7906 27.3809 128 128 128
103.509 110.84 25.3131 128 128 128
90.1509 105.99 10.9753 128 128 128
96.7381 109.617 14.427 128 128 128
76.9539 87.2461 18.3653 128 128 128
90.497 102.144 13.3604 128 128 128
80.8746 86.2923 20.4127 128 128 128
93.7361 95.1765 23.3898 128 128 128
85.0803 96.9335 9.6227 128 128 128
71.0297 74.3916 21.0875 128 128 128
92.6509 86.3515 34.4786 128 128 128
93.5649 85.6672 34.0547 128 128 128
116.234 122.188 16.6163 128 128 128
90.0178 93.8022 20.5076 128 128 128
61.6433 74.5877 5.2278 128 128 128
112.01 104.982 26.5438 128 128 128
88.6038 93.9098 22.3933 128 128 128
93.4866 85.709 34.0627 128 128 128
75.169 69.6712 26.3715 128 128 128
115.003 118.312 28.657 128 128 128
112.035 106.965 34.7365 128 128 128
64.6013 93.8661 1.15451 128 128 128
74.9689 68.1948 28.0427 128 128 128
84.2866 100.766 13.2376 128 128 128
86.4424 99.7351 9.68781 128 128 128
99.8302 110.773 17.9142 128 128 128
85.0555 99.3586 11.4584 128 128 128
93.1782 103.49 17.2113 128 128 128
91.4758 87.6009 30.127 128 128 128
110.08 111.5 22.6492 128 128 128
100.212 111.122 15.4991 128 128 128
97.3214 112.176 16.5371 128 128 128
92.9736 102.846 20.1175 128 128 128
116.452 129.067 17.4222 128 128 128
113.784 112.806 23.113 128 128 128
102.223 111.182 13.7593 128 128 128
84.2544 109.422 2.80066 128 128 128
110.002 110.402 21.8888 128 128 128
80.5663 84.9917 23.1543 128 128 128
94.1399 103.557 16.8574 128 128 128
72.1553 87.0398 15.5478 128 128 128
101.621 103.431 26.3741 128 128 128
114.577 102.54 29.4381 128 128 128
79.2064 85.8959 19.1246 128 128 128
80.4502 98.493 8.94452 128 128 128
107.975 95.71 32.6312 128 128 128
99.8197 114.599 18.7637 128 128 128
109.976 106.768 27.8783 128 128 128
108.558 95.4493 31.4713 128 128 128
87.491 107.55 4.93589 128 128 128
111.144 130.454 15.3669 128 128 128
62.3155 76.9269 13.3646 128 128 128
109.245 103.061 26.0801 128 128 128
101.64 104.398 20.3909 128 128 128
88.6832 110.071 3.69146 128 128 128
79.7524 97.2825 7.61641 128 128 128
87.553 102.97 10.2777 128 128 128
103.987 112.405 14.7001 128 128 128
89.7916 95.7672 22.479 128 128 128
67.6899 84.6903 5.4161 128 128 128
66.2583 73.5332 18.7668 128 128 128
123.71 116.078 31.2497 128 128 128
74.0897 95.8353 7.03577 128 128 128
89.0975 97.1023 16.736 128 128 128
84.6268 76.2739 30.593 128 128 128
85.7136 111.309 7.63923 128 128 128
105.547 96.1188 34.081 128 128 128
58.3334 71.344 10.1462 128 128 128
87.3914 103.206 10.7249 128 128 128
95.0049 85.8229 36.2961 128 128 128
85.8467 111.254 7.43569 128 128 128
108.453 107.359 29.3101 128 128 128
78.3913 77.679 32.8418 128 128 128
93.193 115.301 1.93154 128 128 128
91.9501 94.7068 18.7466 128 128 128
104.888 131.659 13.0084 128 128 128
94.3587 109.899 5.58618 128 128 128
90.4537 91.2581 22.862 128 128 128
109.613 108.6 32.6035 128 128 128
86.9886 97.5266 11.7894 128 128 128
71.2878 78.8633 20.6025 128 128 128
101.872 102.985 22.5674 128 128 128
79.712 87.5544 10.9562 128 128 128
99.6794 104.709 24.0092 128 128 128
97.0591 102.305 16.2643 128 128 128
80.0402 73.8842 28.4836 128 128 128
96.3941 110.975 11.4415 128 128 128
94.2178 103.476 18.7703 128 128 128
103.955 123.987 6.31031 128 128 128
100.029 89.7744 32.3414 128 128 128
100.769 133.837 8.39052 128 128 128
63.7521 85.7869 4.80601 128 128 128
60.3989 67.0369 16.2469 128 128 128
92.6692 111.924 7.06621 128 128 128
81.8263 105.442 7.53091 128 128 128
100.603 123.649 10.1562 128 128 128
61.4349 89.2683 3.62792 128 128 128
94.8584 109.176 12.5989 128 128 128
99.4335 100.021 18.9143 128 128 128
63.3664 73.1445 17.4877 128 128 128
60.1503 90.0683 1.0242 128 128 128
100.507 122.816 10.3065 128 128 128
102.649 119.076 8.24595 128 128 128
87.7475 109.407 9.30743 128 128 128
93.1885 109.856 15.0363 128 128 128
88.9191 112.33 0.822458 128 128 128
95.6872 112.895 12.2882 128 128 128
72.6674 87.9221 13.3679 128 128 128
95.0692 114.643 11.0861 128 128 128
80.4234 97.4398 5.70101 128 128 128
105.203 117.975 11.4313 128 128 128
109.673 102.023 34.0696 128 128 128
91.8381 128.39 4.67824 128 128 128
98.9619 120.332 13.2357 128 128 128
94.4659 110.544 13.6249 128 128 128
97.1004 93.0528 33.4049 128 128 128
112.679 100.691 31.2715 128 128 128
75.9237 87.0003 15.1321 128 128 128
111.271 124.453 21.1971 128 128 128
103.825 121.48 11.4777 128 128 128
86.4009 107.345 10.034 128 128 128
68.9903 69.9042 15.6603 128 128 128
68.7637 86.9731 11.5958 128 128 128
66.1727 68.9675 20.2153 128 128 128
96.4252 108.648 18.3751 128 128 128
98.3601 118.614 13.9812 128 128 128
100.659 87.4942 39.9838 128 128 128
72.1229 90.2116 3.55809 128 128 128
98.5105 119.921 6.77676 128 128 128
99.0204 93.0111 29.2994 128 128 128
101.375 134.263 4.50551 128 128 128
56.4895 71.6605 6.64452 128 128 128
98.9729 93.8756 32.8149 128 128 128
71.906 82.0854 19.074 128 128 128
101.305 121.133 14.7225 128 128 128
63.7487 71.0195 18.1687 128 128 128
63.8011 70.9813 17.7499 128 128 128
89.55 128.907 2.21744 128 128 128
75.3605 81.0352 13.3934 128 128 128
117.757 129.292 20.0511 128 128 128
98.3695 119.043 3.2336 128 128 128
90.3668 130.128 3.97628 128 128 128
56.344 73.2009 6.77133 128 128 128
82.3471 76.5309 33.3354 128 128 128
71.3156 92.6555 9.86151 128 128 128
63.2824 68.0048 23.5172 22 128 128
64.5836 71.6805 21.2284 12 128 128
105.518 121.229 33.3872 128 128 60
81.6602 95.3176 26.533 64 128 128
104.833 121.238 34.5052 128 128 60
104.193 126.949 23.0762 128 128 128
93.2718 108.288 21.8221 58 43 48
97.069 123.921 1.537 42 40 45
76.7096 92.0387 13.7679 68 70 82
77.5165 83.9534 32.9598 15 128 128
87.9802 99.9323 19.8552 12 128 128
87.7171 98.2066 36.7605 19 128 128
65.36 78.3163 15.5953 80 80 92
71.2313 77.2285 23.0286 74 73 87
66.8267 77.4957 18.5881 82 76 90
101.298 117.503 33.208 69 63 63
65.33 78.0999 16.8681 59 64 84
78.9173 94.2923 11.7794 68 70 82
93.3942 110.767 30.0569 24 22 25
90.3118 93.1384 49.925 74 71 78
65.4732 78.0905 17.7174 3 36 67
89.9346 96.9156 36.9628 17 128 128
90.991 94.2598 47.1618 72 69 78
79.4312 95.5644 16.0392 65 72 82
99.5165 109.182 45.2918 128 128 60
81.8491 98.5485 14.7731 13 128 128
76.361 87.5889 19.6026 60 64 76
98.0825 116.471 27.5021 64 53 59
94.6854 110.44 18.2085 128 128 96
59.7343 67.5493 18.0798 34 128 128
78.0597 86.443 27.0693 15 128 128
57.0735 69.4409 13.9086 55 123 128
70.5828 74.7711 33.3209 74 74 86
84.7252 91.7109 36.1762 68 70 82
78.4269 86.3775 26.4441 15 128 128
79.0118 87.3551 23.4309 19 128 128
78.973 86.28 24.8645 15 128 128
68.0755 75.6958 25.8776 69 69 81
69.667 75.3138 23.2799 69 69 81
83.1245 100.295 14.789 18 128 128
88.7717 98.8977 31.6409 23 128 128
89.2765 94.5289 38.5632 16 128 128
94.2938 114.208 26.0896 63 54 55
97.4874 107.862 44.4738 128 128 118
64.3526 74.8714 22.722 12 128 128
87.0191 103.214 11.6461 11 128 128
104.386 130.204 8.17927 123 118 122
87.459 103.172 11.0272 11 128 128
104.266 122.705 33.4252 51 32 0
106.317 118.837 42.6747 73 64 65
99.0002 118.643 31.2627 65 59 61
92.7813 109.275 22.1646 56 40 41
93.9907 113.522 25.3194 65 50 53
95.5123 97.6914 53.4388 128 128 60
105.692 131.791 17.3085 121 100 95
60.9908 69.9667 20.4325 19 128 128
85.5161 100.204 22.9057 12 128 128
93.2072 103.626 37.3593 66 64 69
100.438 118.606 29.419 65 59 61
94.625 101.033 50.8754 128 128 56
91.6653 95.8958 39.3123 20 128 128
100.981 114.824 36.9214 128 128 85
76.7328 87.3264 23.4696 19 128 128
89.1632 104.541 25.9928 67 67 77
89.0315 93.2211 46.32 71 68 77
104.934 129.234 19.1585 67 55 55
64.7308 70.0962 21.6979 17 128 128
77.8382 87.1324 21.5576 19 128 128
104.095 121.672 32.068 99 79 52
85.3063 98.9443 23.5506 15 128 128
95.8441 96.778 57.0494 128 128 58
87.0802 100.753 28.7325 17 59 75
88.8523 98.0392 29.4021 11 128 128
106.405 134.113 19.6198 96 85 83
106.654 129.601 21.9909 128 128 128
88.2394 107.222 3.50986 66 68 81
98.1944 104.596 44.9477 77 66 74
106.279 126.226 40.0587 128 128 58
70.7106 79.2377 21.8829 73 72 86
89.7002 102.682 20.8798 66 66 78
107.875 129.12 27.2334 74 60 59
104.066 130.84 6.8555 34 28 32
76.2353 89.5259 16.8419 73 72 86
99.2716 125.456 13.3255 58 52 56
76.6519 97.1652 7.10881 60 63 80
107.349 125.555 38.6079 128 128 51
94.5781 109.399 21.6044 57 29 41
105.897 126.066 30.4752 61 51 52
102.747 123.663 19.2945 26 22 23
93.256 109.828 15.5163 128 58 62
90.6023 105.062 24.5045 65 64 72
90.5087 105.906 25.1221 60 59 67
98.2183 125.053 4.13458 45 39 43
93.3617 106.594 35.5634 70 65 71
63.598 83.2645 0.779023 73 72 86
70.5331 84.1478 14.4948 15 128 128
66.6659 82.9118 9.56807 14 128 128
76.6951 93.1622 9.97298 65 68 77
71.4707 71.6556 36.7735 19 128 128
65.355 71.4766 20.2497 12 128 128
64.4811 80.8955 1.76742 71 73 88
108.924 119.827 51.3592 128 128 55
107.9 130.522 31.0907 92 76 76
86.6521 105.927 10.8299 23 128 128
86.99 107.319 4.79836 66 68 81
106.375 127.747 31.8021 81 70 66
91.7096 95.6238 50.4539 77 62 55
84.7978 99.8568 20.6332 10 128 128
100.394 123.723 10.9908 39 35 36
91.2982 90.6633 52.0263 69 67 72
76.174 88.8551 17.703 71 70 84
89.074 102.421 28.687 46 65 82
65.8015 90.1846 3.79682 72 70 81
86.0369 109.039 6.10988 65 68 85
95.3393 120.51 1.70258 34 41 59
90.0608 98.7501 29.8963 23 128 128
98.932 112.533 43.8133 128 128 56
65.739 73.8538 15.7319 13 128 128
95.8126 105.394 38.0685 72 67 73
97.0117 121.818 1.9428 48 45 52
73.3278 73.1634 37.4338 20 128 128
75.8074 94.4555 2.59466 34 103 128
68.4119 69.5001 32.5147 53 128 128
68.1227 84.419 4.82327 20 128 128
88.7695 100.572 26.987 17 59 75
78.2182 89.4141 16.1659 70 70 82
96.6558 115.813 17.4789 59 50 51
100.979 125.462 10.1997 58 52 56
99.716 129.315 3.40202 128 128 128
73.2368 87.4492 18.148 59 65 79
96.5637 115.558 22.8783 82 73 74
105.315 133.199 1.33683 53 43 44
87.8018 100.676 28.2008 17 59 75
101.438 129.594 10.8958 94 89 93
92.9766 120.551 1.89157 34 41 59
61.2917 80.7555 1.40659 76 76 88
95.4415 122.084 7.65815 51 42 45
95.4291 119.166 8.1057 43 37 41
103.642 133.726 3.04918 60 46 46
81.6235 97.2556 18.3141 12 128 128
105.206 112.223 60.3139 128 128 54
88.1741 100.636 27.8404 17 59 75
94.3472 98.1504 49.1321 128 128 62
73.684 81.6749 21.2521 69 72 87
95.2139 99.9484 45.1749 67 52 23
100.849 125.885 8.76833 46 44 47
67.7702 76.6353 20.8321 70 68 79
98.2304 99.7026 55.7169 128 128 70
91.9048 120.428 3.83609 40 82 122
105.109 131.672 13.3753 104 86 82
64.5788 70.1328 22.6205 17 128 128
97.1524 102.433 54.0286 102 81 34
102.574 133.986 0.633111 60 50 51
109.448 131.667 29.6507 92 75 68
93.1328 119.867 3.24797 19 53 90
69.6212 87.3288 9.21611 14 128 128
97.6888 123.732 15.1982 39 35 36
95.5448 100.12 49.1256 128 128 64
73.0022 91.7035 6.89223 24 128 128
97.0695 121.429 6.57872 58 49 54
73.3896 92.1449 5.24148 48 128 128
71.7779 86.8941 9.13401 20 128 128
80.7123 94.3047 17.5829 67 71 83
69.8538 83.2162 9.12205 17 128 128
72.2673 90.1283 3.60965 18 128 128
106.076 128.264 29.3547 63 49 48
73.951 88.1503 18.3303 73 72 90
64.0563 81.706 7.92245 66 76 86
73.9348 87.072 20.0802 60 69 76
85.6943 106.008 11.5119 23 128 128
101.676 132.909 6.18045 128 128 128
77.3581 87.4148 18.4823 60 64 76
71.5661 86.9326 9.69487 20 128 128
42.3081 81.8931 76.2572 71 73 85
137.986 79.7916 71.5057 36 64 86
-1543.3 507.461 3068.46 55 62 80
86.0789 133.52 61.1321 52 33 0
87.955 133.777 58.3177 52 33 0
101.69 107.689 8.48486 128 128 92
-163.336 131.985 452.665 74 76 89
103.486 106.604 7.76065 128 128 111
-174.485 134.91 473.075 74 76 89
136.136 61.7792 70.4841 17 128 128
49.8805 137.952 104.508 128 128 128
74.6743 92.3507 17.6547 69 75 89
203.507 100.982 105.376 70 50 15
148.853 58.7776 142.143 18 128 128
137.686 76.5141 60.0859 71 71 83
236.544 76.4771 173.045 24 128 128
227.148 77.4831 158.654 24 128 128
92.0014 103.02 9.65219 38 60 81
84.5093 103.094 23.2966 50 57 73
77.095 94.5496 16.0493 66 74 87
151.515 74.3683 83.3781 71 71 83
157.815 90.987 72.7141 22 128 128
71.3918 132.216 74.42 128 128 128
233.996 104.096 135.781 128 128 63
130.748 76.8345 42.4252 76 76 88
43.6271 128.904 96.0994 128 41 55
46.0061 97.8885 47.1748 70 78 91
88.102 103 10.2891 32 128 128
113.327 64.4444 40.0598 74 80 94
90.2399 102.905 6.64677 32 128 128
93.0119 106.122 17.6164 64 29 36
126.917 77.4427 36.7085 76 76 88
127.023 96.2649 26.7765 36 100 125
83.4425 103.207 18.7601 32 128 128
145.478 94.6073 46.0309 17 128 128
118.243 96.5964 30.209 13 128 128
87.7574 93.5379 1.67559 70 77 87
97.1125 69.5499 55.0759 77 76 90
168.196 110.255 57.4238 69 57 45
358.797 -29.0876 514.46 69 80 98
98.5623 135.168 47.7829 128 128 63
-1445.25 480.834 2882.09 55 62 80
45.7798 129.219 92.5274 128 41 55
-158.404 130.628 440.931 59 62 79
115.892 127.205 17.9039 73 58 53
121.656 110.317 12.3159 66 57 58
532.611 -84.1969 836.869 69 80 98
127.959 129.963 8.7271 128 124 59
81.8839 128.787 56.6885 128 128 128
94.1953 96.2428 7.03295 13 128 128
141.177 94.9651 57.9418 69 73 84
38.9307 135.652 110.532 67 55 57
-154.403 129.581 433.821 59 62 79
97.306 95.9898 1.47927 13 128 128
-551.492 238.14 1190.76 55 62 80
139.208 75.7495 68.927 61 128 128
168.905 120.008 47.3884 128 128 61
134.899 93.6179 40.8762 16 128 128
63.9313 99.1916 37.1483 50 118 128
48.6394 115.744 68.7579 65 61 78
86.5643 143.468 72.9648 128 128 69
-508.249 224.671 1022.72 54 67 83
275.899 75.1246 198.459 128 128 65
121.967 117.242 3.37894 61 60 56
274.796 75.2339 196.125 128 128 65
68.8556 98.9726 29.3016 39 81 121
128.342 121.379 1.86239 42 38 39
198.246 113.455 82.6915 60 44 28
88.2119 105.259 14.3385 50 52 67
77.8082 82.8963 1.24875 13 128 128
89.7003 97.6126 7.01714 13 128 128
107.211 142.3 50.1759 88 78 79
63.2538 107.227 44.4341 71 73 86
69.5111 141.468 88.0898 128 128 68
94.7177 115.291 26.8652 53 47 47
-167381 50794.3 303899 22 128 128
224.736 66.3428 146.061 75 74 80
215.033 92.4836 125.773 80 74 76
110.313 142.822 45.3954 88 78 79
159.615 89.8814 63.9689 18 128 128
108.208 102.844 3.83677 64 63 69
72.5425 78.3672 17.713 66 72 86
96.6687 85.7397 20.5964 71 73 86
123.5 102.224 28.6748 64 63 69
94.2936 87.3599 14.357 71 73 88
99.8675 115.43 18.905 53 47 47
31.8938 98.2852 64.7978 74 76 89
88.796 99.6326 10.1649 13 128 128
580.075 -88.2198 901.808 19 128 128
202.522 82.5432 113.761 56 128 128
108.82 77.5028 23.146 17 128 128
37.073 92.5881 52.1088 80 78 89
64.2247 84.3496 19.469 17 128 128
188.603 80.075 106.537 17 128 128
92.6195 95.8725 1.45313 13 128 128
93.0858 114.688 22.6536 60 54 56
399.666 -35.2566 569.983 22 128 128
258.865 74.3314 198.275 73 128 128
86.4839 129.777 55.2946 80 71 72
65.0347 138.173 86.705 128 128 128
63.734 110.582 45.5163 37 63 86
31.5938 127.022 104.413 128 25 46
34.5331 126.264 100.856 128 39 55
75.4063 110.248 36.6515 31 44 63
146.587 126.883 10.8989 128 128 67
47.6309 92.7996 32.7725 75 75 85
39.8309 93.8705 49.2085 75 75 85
4063.96 -1097.86 7263.09 55 71 96
58.8447 110.473 54.9408 21 66 97
47.6013 125.471 88.9729 58 46 48
51.7832 86.5843 43.3806 17 128 128
105.345 130.459 37.904 74 63 59
207.607 88.2629 114.732 72 70 75
111.769 100.537 15.1752 66 66 76
145.65 108.979 31.6279 128 128 107
215.9 90.1021 124.515 82 78 79
283.925 103.055 180.107 77 70 64
76.9795 86.7837 12.327 74 73 87
68.4467 100.167 26.9166 34 128 128
70.7866 94.0366 21.2281 76 75 93
840.244 -172.561 1353.17 18 128 128
68.4487 105.659 40.5991 67 73 85
38.1383 88.5455 50.3453 26 128 128
89.9518 119.525 35.7999 51 45 47
114.368 130.25 24.4924 81 72 77
103.658 117.001 18.3663 50 44 44
50.322 96.45 44.658 36 128 128
92.9266 120.433 30.8983 53 47 49
61.3936 89.3742 13.1405 76 74 87
40.9184 123.873 92.5557 128 128 128
155.711 138.691 5.21793 128 128 61
1304.54 -315.15 2188.41 18 128 128
196.73 89.1159 104.454 79 74 80
238.605 83.4126 161.436 76 79 84
59.7739 122.429 68.7098 128 128 128
54.1376 112.134 62.4666 15 128 128
8922.68 -2591.33 15483.9 22 128 128
80.5965 118.205 44.4539 65 59 61
-125.689 121.96 381.662 23 128 128
48.0385 127.662 91.8341 128 128 128
95.0119 77.3023 16.5799 24 128 128
76.3081 128.162 59.7446 128 128 128
50.8623 95.6411 48.0622 38 128 128
66.555 126.719 68.2508 81 65 66
146.25 128.813 11.4264 128 128 77
49.3813 93.5596 40.0693 75 75 87
220.654 94.1301 132.99 77 71 73
209.211 91.6707 125.685 74 68 70
60.1806 122.464 67.6311 128 128 128
191.571 91.292 98.6854 78 69 74
88.1703 79.5831 2.7317 19 128 128
67.2378 126.793 66.7577 81 65 66
81.511 117.632 44.5038 61 55 55
63.8837 122.468 66.8082 60 55 61
194.38 92.633 103.556 74 68 70
52.3331 88.3808 36.9733 21 128 128
194.608 92.2322 101.042 71 69 70
46.6092 84.8512 36.9503 78 76 97
325.125 61.2629 275.386 128 128 93
251.613 14.4258 331.882 24 128 128
51.5106 121.281 73.0112 64 56 67
58.2174 128.071 77.5057 128 128 128
193.868 90.4823 112.798 21 128 128
185.661 84.0326 105.379 19 128 128
321.84 77.1989 261.752 128 128 65
96.1017 131.848 49.8714 128 128 128
97.1874 131.759 61.2235 128 128 128
108.974 101.492 40.5711 128 128 128
89.4808 102.871 14.8329 128 128 128
107.247 106.673 44.8036 128 128 128
100.809 107.837 28.2464 128 128 128
66.385 77.5448 14.1641 128 128 128
97.4843 84.8341 18.568 128 128 128
66.4928 77.2776 16.4972 128 128 128
67.3277 77.0469 17.8663 128 128 128
97.6614 96.5285 18.0003 128 128 128
91.0402 132.09 26.2062 128 128 128
96.3618 95.8737 20.5907 128 128 128
88.5265 127.217 13.0481 128 128 128
106.154 111.336 46.1931 128 128 128
67.2677 73.2673 18.1142 128 128 128
87.5409 112.796 9.96109 128 128 128
91.3488 129.776 28.9667 128 128 128
90.3523 96.5553 13.4292 128 128 128
95.7256 125.988 36.9906 128 128 128
92.3543 106.139 18.2985 128 128 128
97.3221 110.148 24.6147 128 128 128
90.4864 96.4687 12.0126 128 128 128
94.3853 89.0338 17.5065 128 128 128
72.4789 83.8206 10.7062 128 128 128
94.5995 100.868 17.5566 128 128 128
96.9554 110.344 24.3011 128 128 128
82.3455 72.031 13.1264 128 128 128
97.6327 122.142 41.1337 128 128 128
51.181 78.8323 22.7415 128 128 128
88.6815 130.118 16.8491 128 128 128
85.0415 123.789 5.42108 128 128 128
95.2112 120.161 28.4809 128 128 128
101.598 91.907 21.0279 128 128 128
89.1911 98.0748 14.1377 128 128 128
108.323 107.574 48.3536 128 128 128
69.1599 69.6059 18.2498 128 128 128
95.7689 119.448 31.6429 128 128 128
100.726 92.4567 22.5498 128 128 128
95.6335 119.601 34.0899 128 128 128
68.9017 69.8509 18.8904 128 128 128
92.3577 103.585 18.4821 128 128 128
93.0337 136.37 47.9334 128 128 128
75.1173 87.201 10.1589 128 128 128
85.1172 110.461 7.82463 128 128 128
91.4129 114.011 14.1887 128 128 128
80.3928 98.077 7.80075 128 128 128
79.1433 88.1779 11.7822 128 128 128
80.9891 62.3621 14.9616 128 128 128
84.8969 110.588 7.96283 128 128 128
90.7108 129.793 23.6798 128 128 128
90.873 129.375 27.23 128 128 128
110.972 103.201 43.2631 128 128 128
80.5747 97.9534 7.03778 128 128 128
97.6799 116.442 30.2511 128 128 128
95.069 96.0963 16.2547 128 128 128
109.153 98.1219 36.5239 128 128 128
106.465 90.5394 23.0938 128 128 128
55.5095 92.9027 10.6106 128 128 128
93.8 122.842 30.7741 128 128 128
84.2023 106.612 8.98616 128 128 128
91.8285 98.4394 14.5062 128 128 128
84.6698 113.391 10.1725 128 128 128
100.547 89.7995 17.4319 128 128 128
86.9844 117.784 6.69655 128 128 128
105.121 97.7123 30.1911 128 128 128
83.0163 106.775 9.08299 128 128 128
100.309 82.2017 18.116 128 128 128
85.9234 96.4362 12.306 128 128 128
66.2598 83.984 14.2705 128 128 128
94.5398 122.498 28.9248 128 128 128
70.6631 89.7366 10.8712 128 128 128
105.489 96.1288 27.9892 128 128 128
92.2168 71.3812 12.4297 128 128 128
98.2827 130.432 62.5045 128 128 128
84.673 64.6932 13.7964 128 128 128
103.29 124.051 64.3448 128 128 128
84.5173 112.802 9.06776 128 128 128
78.4266 97.9644 6.99321 128 128 128
102.471 87.3922 20.829 128 128 128
99.4193 129.812 60.6622 128 128 128
86.2063 128.698 6.19182 128 128 128
77.9653 86.636 11.3994 128 128 128
93.3454 68.3 12.3993 128 128 128
60.471 84.8309 15.4624 128 128 128
110.39 97.4206 33.897 128 128 128
87.2539 130.779 7.98973 128 128 128
78.0921 98.0684 5.27788 128 128 128
101.147 127.772 65.0806 128 128 128
100.329 119.422 43.9449 128 128 128
88.0355 122.29 10.6977 128 128 128
85.0598 112.497 7.88595 128 128 128
84.8751 115.05 5.7495 128 128 128
92.9202 118.343 22.8336 128 128 128
92.1024 118.749 24.1143 128 128 128
90.5627 125.019 16.3739 128 128 128
94.793 118.342 30.3827 128 128 128
85.8152 105.094 9.76927 128 128 128
76.2743 80.5798 10.7793 128 128 128
85.6538 106.281 11.7748 128 128 128
102.389 98.1456 27.46 128 128 128
86.1188 81.1944 11.1669 128 128 128
63.4218 86.546 12.6034 128 128 128
95.0064 121.578 28.3563 128 128 128
86.5733 120.088 10.8396 128 128 128
104.539 97.4243 26.0845 128 128 128
67.5018 89.5496 8.90653 128 128 128
84.4592 118.111 7.10427 128 128 128
107.308 77.1057 18.1888 128 128 128
68.8876 86.697 11.4149 128 128 128
66.6037 98.1391 4.52966 128 128 128
55.1116 76.9227 20.7569 128 128 128
74.881 81.7273 13.9839 128 128 128
