ply
format ascii 1.0
element vertex 178
property float x
property float y
property float z
property uchar red
property uchar green
property uchar blue
end_header
162.245 76.4809 57.778 74 73 79
128.407 81.1019 54.6876 36 64 86
-1152.44 401.259 2335.32 56 128 128
101.47 107.701 8.83947 128 128 92
121.952 134.572 38.2946 128 128 61
103.64 133.894 34 85 72 64
127.889 111.266 10.9004 128 128 62
120.964 118.492 26.3026 128 128 74
103.488 106.604 7.75745 128 128 111
103.489 133.875 34.0501 85 72 64
93.604 71.5929 3.50671 21 128 128
74.6743 92.3507 17.6547 69 75 89
81.5044 126.519 25.2835 128 128 128
128.227 107.421 9.96948 128 128 59
143.124 105.951 10.3295 128 128 63
133.634 77.1474 53.0584 71 71 83
108.096 143.972 44.8696 77 62 59
103.767 91.573 16.6912 13 128 128
148.204 87.8956 35.6876 56 128 128
116.247 105.891 6.63643 128 128 62
142.992 88.4092 27.7509 56 128 128
136.184 92.6105 33.5124 19 128 128
92.0014 103.02 9.65219 38 60 81
145.086 75.3707 72.2866 71 71 83
102.323 138.979 42.7752 128 128 96
84.5174 103.093 23.2812 50 57 73
77.1004 94.5488 16.0394 66 74 87
108.147 92.1606 1.47968 17 128 128
123.335 117.509 3.52838 75 69 71
72.9147 113.923 30.0411 19 128 128
112.923 117.155 18.472 75 69 71
130.649 111.126 1.20991 128 128 100
105.759 136.355 37.0367 128 128 62
88.102 103 10.2891 32 128 128
112.775 64.5751 39.0903 74 80 94
112.947 105.199 2.13302 39 37 40
77.3618 97.0468 20.326 13 128 128
90.2429 102.905 6.64117 32 128 128
93.0119 106.122 17.6164 64 29 36
125.334 77.727 34.037 76 76 88
127.046 96.2624 26.809 36 100 125
126.556 111.115 7.12785 128 128 100
95.5129 93.3876 12.3339 32 92 128
150.274 101.067 14.5552 128 128 65
152.486 87.714 39.6337 56 77 98
83.4425 103.207 18.7601 32 128 128
86.5811 147.087 48.153 128 128 128
87.6818 93.5449 1.6539 70 77 87
-46.8787 101.464 242.255 59 62 79
91.3039 81.3258 12.4528 9 128 128
87.7384 96.166 1.82276 13 128 128
119.232 84.064 20.7142 68 70 82
79.1204 63.05 6.2473 19 51 74
130.58 107.86 7.76401 128 128 128
111.045 110.747 8.68024 61 52 55
133.608 111.378 5.01075 78 58 7
115.309 84.5812 13.9781 68 70 82
160.287 78.8978 62.596 67 69 84
173.092 93.7045 38.3477 80 71 72
-1291.64 439.05 2599.06 56 128 128
131.669 112.905 4.36175 70 64 66
115.265 68.042 21.7779 69 73 85
39.9071 99.4021 45.6133 73 75 87
132.064 112.765 8.93505 60 44 28
146.787 112.918 12.4373 60 44 28
115.892 127.205 17.9039 73 58 53
163.021 93.1541 23.5004 78 73 77
143.996 105.771 2.46285 128 128 64
178.581 103.13 37.1211 128 128 66
94.1426 96.2493 7.12841 13 128 128
88.0459 138.106 46.5206 34 20 19
100.525 99.3132 9.23611 71 68 75
97.2517 95.9964 1.57772 13 128 128
-533.331 233.181 1159.25 56 128 128
156.837 46.8631 95.3337 54 67 83
139.331 75.7278 69.1496 61 128 128
114.814 126.284 32.0281 128 128 77
126.312 110.302 3.78545 69 57 45
34.1789 76.8011 92.3399 55 71 96
133.398 93.7352 38.4918 16 128 128
84.399 132.45 32.1844 128 128 128
118.378 120.865 12.6862 42 38 39
82.1969 70.9926 10.8349 77 76 90
95.1099 103.475 15.3123 68 69 74
124.313 128.892 27.1668 80 72 70
124.919 127.094 17.654 128 128 77
16.8863 88.002 88.451 76 73 90
146.378 87.9288 46.2987 19 128 128
79.8012 132.262 38.419 128 128 128
135.245 39.5553 124.697 17 128 128
85.0663 132.538 31.1733 128 128 128
88.4363 105.24 13.8831 50 52 67
77.8082 82.8963 1.24875 13 128 128
81.3138 98.6164 20.6353 13 128 128
108.585 142.401 48.3333 88 78 79
100.818 109.342 3.51972 47 44 55
-27.6719 98.0215 185.91 75 74 88
111.728 142.927 43.4948 88 78 79
147.037 91.3597 42.9584 18 128 128
108.208 102.844 3.83677 64 63 69
72.5425 78.3672 17.713 66 72 86
99.1961 115.412 19.9398 53 47 47
101.585 109.337 2.29395 47 44 55
96.6687 85.7397 20.5964 71 73 86
69.8868 90.5765 29.4955 71 73 88
94.2936 87.3599 14.357 71 73 88
88.796 99.6326 10.1649 13 128 128
108.82 77.5028 23.146 17 128 128
400.795 -11.2607 498.199 75 75 87
132.155 88.7991 25.0542 19 128 128
164.34 106.429 15.8657 128 128 66
71.7774 128.406 37.7182 64 84 111
180.901 100.456 41.1314 128 128 110
209.779 45.0558 188.956 73 74 92
79.0514 121.063 29.3493 59 53 53
71.5406 131.83 43.7167 128 128 128
64.2247 84.3496 19.469 17 128 128
141.986 89.1581 18.4695 128 128 69
137.777 87.052 25.3166 24 128 128
69.8236 127.052 35.3049 128 128 128
44.6245 94.1763 48.2775 75 75 87
92.6195 95.8725 1.45313 13 128 128
93.0858 114.688 22.6536 60 54 56
121.371 134.048 30.9821 80 62 40
-321.421 171.098 706.035 75 75 87
160.557 86.8539 47.4453 128 128 81
136.912 106.733 4.97641 128 128 66
100.536 113.82 8.50725 60 51 54
24.6678 92.0359 80.8629 51 62 80
40.385 89.2988 48.5881 51 62 80
111.482 129.96 28.2817 81 72 77
167.924 86.6776 56.0871 128 128 69
9.34227 85.4647 144.525 27 128 128
105.354 123.653 16.0178 49 44 51
81.8278 110.352 26.108 32 43 61
51.7832 86.5843 43.3806 17 128 128
104.119 130.429 39.6878 74 63 59
111.834 100.531 15.2868 66 66 76
-152.924 129.013 428.993 23 128 128
76.9795 86.7837 12.327 74 73 87
70.7866 94.0366 21.2281 76 75 93
149.824 83.8986 43.5247 52 128 128
134.677 134.461 25.7524 128 128 61
71.3443 127.633 28.5425 128 128 128
133.774 102.247 16.3999 80 70 71
113.407 130.153 25.9147 81 72 77
92.7027 129.92 29.4938 127 116 114
103.684 117.002 18.3268 50 44 44
72.4231 93.1061 2.22567 64 128 128
113.459 143.231 47.4827 113 88 32
97.6917 120.703 23.5924 53 47 49
61.3936 89.3742 13.1405 76 74 87
136.138 95.5815 11.0091 82 78 79
78.1713 130.757 27.5626 71 78 107
91.1149 129.401 28.6036 81 65 66
86.0327 124.119 24.4806 128 128 128
122.208 95.7 4.65085 21 128 128
159.995 83.4379 49.665 82 80 83
95.0119 77.3023 16.5799 24 128 128
157.519 94.1502 25.5598 69 59 57
86.7214 118.744 25.6303 54 49 55
163.697 80.8212 47.349 128 128 93
99.7624 130.714 29.2842 128 128 128
91.4198 124.603 24.0263 38 33 37
89.3352 129.207 32.0221 81 65 66
154.974 111.62 1.60043 71 49 28
140.252 95.9131 14.4934 79 75 76
96.0837 114.212 11.9391 64 55 58
109.949 146.125 45.3666 96 69 50
88.1703 79.5831 2.7317 19 128 128
56.3418 95.5881 35.0465 19 128 128
150.913 96.3866 33.774 80 74 76
81.0287 106.399 19.9948 68 70 83
77.8612 119.675 25.4556 44 39 43
86.4356 116.107 20.7722 45 46 51
52.6079 84.1646 32.0141 16 128 128
136.413 90.2482 27.386 19 128 128
132.601 96.1104 13.8041 85 77 75
