640.951 1255.31 1511.34
-45.5556 -416.052 -661.076
322.337 633.222 687.64
99.3555 -24.422 -77.4912
162.025 0.28326 -83.7561
2177.13 5440.65 6966.4
119.957 -185.264 -299.653
239.144 411.921 415.601
1000.72 3472.58 4214.46
186.325 142.904 126.405
167.026 142.157 75.9045
532.674 1922.27 2049.4
267.246 535.422 610.202
164.859 155.756 110.547
-174.842 -1531.41 -1827.2
173.755 135.71 85.8651
153.049 119.872 58.222
160.316 148.04 97.538
186.032 140.845 109.329
223.641 349.006 349.328
169.028 140.536 100.196
73.9507 -58.8987 -188.973
156.43 119.859 52.2537
263.56 451.868 468.789
253.922 457.126 470.628
7.99643 -226.793 -354.807
175.068 160.59 120.881
209.494 290.376 275.149
141.374 94.4838 18.6405
175.944 94.2445 51.3684
139.712 99.6602 33.4555
64.7409 -250.683 -436.291
3.2295 -338.453 -488.961
131.605 88.2232 25.494
1191.8 3147.93 3567.61
385.479 1492.02 1554.23
183.988 60.3199 31.7793
182.817 94.049 67.88
99.3685 -25.6238 -131.405
183.002 163.722 124.593
185.516 49.7721 0.393728
67.4093 -224.955 -438.208
226.288 366.003 367.018
-383.34 -2459.18 -3588.51
141.077 12.8944 -69.8047
123.009 -117.182 -208.247
206.01 275.117 256.491
20.03 -548.893 -780.056
228.326 385.258 381.257
168.819 119.941 64.9212
178.03 84.9454 28.6691
169.236 151.467 100.743
169.295 151.728 100.241
-61.2249 -387.314 -519.165
231.249 354.205 348.904
176.398 160.988 112.804
169.786 58.5476 17.7041
262.818 476.961 501.136
-47.4634 -570.419 -757.234
180.539 162.115 98.8378
173.315 133.521 86.5347
237.848 373.298 392.401
126.54 88.4065 25.1439
190.275 78.7399 41.0688
241.065 396.899 411.272
183.22 134.942 93.6893
182.26 20.051 -33.9215
184.168 141.78 75.5816
-199.623 -1114.2 -1219.69
271.174 467.351 512.547
279.638 517.889 587.784
208.777 284.08 268.352
258.367 452.71 476.954
177.891 -48.0262 -93.2542
118.535 -355.291 -530.891
166.543 78.2805 26.6135
177.052 156.066 114.829
52.755 -104.219 -298.692
136.2 72.7205 -1.3385
172.104 108.589 78.5027
233.889 389.918 414.583
-209.654 -824.493 -1420.8
177.105 123.36 82.4892
148.901 73.0375 -1.25097
222.02 355.998 348.531
85.0998 -648.028 -855.423
165.116 165.811 100.087
156.427 120.566 53.1819
202.528 263.396 242.531
170.837 145.763 108.728
96.2577 55.5365 -63.4026
51.8483 -580.59 -722.804
153.888 82.8594 24.674
164.198 138.248 82.9189
212.931 301.566 296.196
161.794 95.8899 33.4842
-1220.32 -7565.3 -8731.17
108.708 81.2876 -7.74067
168.495 103.732 62.7346
150.466 -108.111 -167.787
191.176 144.115 118.782
163.954 119.465 44.503
174.02 74.4306 -0.855933
162.435 157.481 116.112
178.659 136.097 68.3356
207.51 278.822 262.205
178.998 138.885 93.5076
136.88 87.3174 23.8419
182.647 79.1086 27.5031
232.996 364.455 360.961
236.902 393.235 417.539
180.435 120.57 76.6864
173.156 145.872 102.188
213.474 304.716 292.746
103.694 -21.0998 -89.4551
-113.362 -761.651 -997.642
131.434 87.2702 23.4611
141.612 47.9219 -65.3855
245.736 451.284 469.382
117.55 41.5505 -17.5834
158.664 62.9792 40.2774
225.045 322.471 319.564
74.9399 -230.529 -321.29
49.8805 -325.074 -429.663
152.513 133.382 57.7552
149.376 80.8226 1.04832
-133.982 -497.936 -732.242
208.316 283.914 269.161
102.92 -15.2545 -199.115
166.414 66.5195 54.6476
135.742 33.6909 -28.1891
123.803 -5.69646 -72.2362
275.381 457.804 487.807
143.207 -108.864 -149.474
210.107 283.729 268.407
119.429 -114.629 -227.976
166.28 127.878 90.739
170.426 167.968 137.332
178.843 144.771 66.7885
160.762 54.7817 -0.24476
189.291 85.4387 36.3517
223.287 332.217 336.403
156.527 24.1701 -22.8997
172.25 120.293 98.9144
179.28 83.8732 39.0832
176.785 72.0412 19.1796
224.324 359.379 365.12
160.321 95.7928 83.2925
180.518 175.99 138.65
183.251 117.062 68.8429
166.629 117.673 92.2741
215.132 307.963 317.873
113.637 127.368 5.33379
153.268 70.2639 41.1811
-325.646 -1723.03 -2803.85
212.618 300.278 289.523
306.205 674.856 741.606
129.58 124.622 -23.144
109.83 -147.945 -286.558
170.601 135.073 118.514
121.553 -45.6171 -161.567
163.086 141.139 93.7624
163.124 166.042 129.683
124.326 40.6978 -43.8968
103.809 -146.953 -318.294
189.648 181.228 149.19
164.404 174.128 131.815
169.707 143.174 103.423
180.877 137.725 121.095
184.191 162.237 100.618
175.133 161.882 14.3174
188.588 197.791 162.604
190.356 196.279 161.774
159.199 188.362 92.8157
215.191 297.396 290.246
233.922 398.931 404.005
214.127 288.954 280.468
195.564 158.006 126.083
197.184 192.66 163.701
188.232 127.506 25.4969
157.567 -28.3029 -114.255
75.7292 38.7375 -181.388
187.42 206.079 172.043
178.538 166.08 124.669
165.385 144.44 103.27
180.277 186.529 144.977
144.231 178.961 27.8715
159.984 104.78 48.3759
154.856 139.959 114.007
138.943 80.5692 47.7225
200.529 259.225 228.566
-219.143 -725.423 -1094.81
196.077 175.769 129.838
128.086 54.9647 -132.297
-816.645 -1638.17 -2541.48
361.402 826.898 1250.69
186.525 173.769 125.404
372.152 674.549 909.628
208.795 277.036 262.783
122.089 190.725 12.9212
249.084 458.725 517.087
185.032 168.109 135.918
180.149 140.24 -62.666
101.321 8.74562 -94.8664
142.533 127.742 -28.7347
161.57 184.531 72.6176
262.864 497.326 659.421
67.389 -109.337 -349.1
193.269 186.685 148.306
183.058 167.944 67.429
181.384 105.012 83.9753
170.993 198.759 155.72
226.121 327.96 364.053
164.546 196.102 42.5876
213.098 289.292 279.238
170.636 179.944 103.252
145.784 83.5032 -138.366
-6739.16 -17844.8 -23109.8
144.747 68.0727 -18.0103
187.053 152.43 111.217
305.756 885.795 980.11
402.088 823.017 960.81
168.225 72.0106 4.63603
181.641 157.523 121.197
451.674 940.977 1092.2
173.578 144.283 84.531
180.862 166.707 128.821
171.959 140.67 96.6379
134.675 116.813 61.8764
231.456 389.668 409.025
375.654 788.318 892.631
134.537 100.648 47.8847
-1.81291 -426.291 -579.82
152.765 148.255 108.022
123.948 26.0363 -45.0998
542.074 2079.87 2393.04
161.685 115.995 32.4016
33.8775 -271.573 -495.658
374.954 1095.76 1337.99
131.108 21.8837 -112.723
227.041 352.895 367.936
145.393 110.109 31.87
208.565 283.384 267.572
148.771 131.789 75.3047
157.471 92.3708 36.4193
491.627 1304.25 1545.69
181.982 38.8178 -46.6455
11.381 -214.442 -305.735
150.953 92.9675 50.0427
149.574 92.6337 48.6938
100.512 -13.7178 -100.158
100.798 -333.232 -421.238
141.491 -51.5838 -105.772
105.551 38.4791 -36.8254
245.663 394.377 403.972
822.031 2171.36 2492.76
116.354 61.0628 -2.13875
226.087 371.072 373.634
439.074 1146.33 1281.32
-403.545 -1775.97 -2164.1
128.977 58.4835 -4.27315
150.093 102.258 48.7902
314.064 772.374 844.327
436.671 838.504 976.987
258.565 609.766 632.005
158.161 100.703 40.6015
296.935 521.615 564.015
244.519 516.67 528.163
147.798 120.917 58.9477
241.462 448.525 475.487
148.06 105.027 40.4107
276.829 499.423 537.997
226.211 344.563 344.735
137.375 -259.056 -388.654
217.733 323.258 318.019
84.3958 -102.782 -228.53
169.151 114.633 69.1681
186.76 131.641 90.2815
168.618 88.5482 10.2509
158.955 132.487 80.6629
161.15 119.758 71.4212
179.806 119.469 75.0989
177.219 166.338 114.98
176.295 145.824 97.7274
173.143 156.934 101.266
301.502 619.767 687.034
6.42221 -483.993 -542.661
140.997 69.9706 16.6815
288.088 494.381 547.515
170.498 150.319 106.195
245.78 401.118 426.289
254.183 426.812 460.878
153.874 107.216 63.0914
225.199 350.461 360.428
846.098 2037.25 2850.72
156.704 87.6346 55.9886
190.186 181.179 90.5321
128.859 141.655 46.8434
24.286 -657.988 -909.333
274.279 588.901 674.252
187.779 169.497 116.01
51.2504 -565.337 -617.276
178.236 149.738 107.416
172.752 121.201 86.6389
81.9131 -206.666 -353.685
175.031 102.529 14.1994
131.259 24.857 -75.7617
190.528 185.953 153.369
198.338 189.637 123.425
198.128 245.387 217.273
328.711 768.257 905.748
177.293 115.647 86.4343
181.222 160.347 116.387
179.752 178.213 124.192
146.285 -2.30301 -123.188
155.324 123.448 68.9742
384.314 873.311 910.983
168.259 39.4853 -44.9537
-141.593 -783.558 -1020.29
173.506 139.366 89.3832
174.348 111.605 71.075
189.303 162.483 124.786
185.436 177.745 118.206
250.088 430.337 443.205
136.55 -297.64 -398.364
178.823 175.993 142.964
160.488 96.0055 82.9226
155.569 142.967 83.1271
169.019 12.4499 -90.2773
166.721 70.2057 57.5921
152.54 141.497 108.256
174.688 71.5466 43.306
183.169 159.552 112.573
111.824 22.8716 -1.01586
34.1435 -780.207 -1035.37
184.551 179.041 130.859
192.301 132.955 97.9376
13.6819 -162.213 -342.939
272.237 474.48 466.4
99.6902 -135.157 -213.327
110.313 24.3714 -1.52649
166.904 131.071 74.7783
-1276.64 -5744.93 -6172.18
155.524 123.541 94.5224
199.891 201.732 174.715
186.455 103.359 87.08
-633.547 -1850.05 -2168.99
-95.8537 -1255.48 -1408.77
149.31 99.8798 2.17616
155.391 109.818 84.0496
163.746 115.876 95.5638
94.2279 -273.426 -470.686
189.741 82.634 39.1498
169.597 178.516 137.687
151.109 -23.5183 -51.0817
174.655 67.9788 7.35756
179.789 160.555 126.095
188.416 87.8845 70.575
147.347 78.6006 56.0487
11.5485 -154.598 -346.742
118.417 -12.6086 -39.0696
179.322 166.387 113.444
-4429.59 -32681.9 -34856
204.452 267.774 249.405
153.265 104.95 73.6386
158.83 80.08 62.8201
115.189 24.6801 -72.3846
251.833 551.222 546.569
192.515 223.57 184.92
190.481 176.68 145.918
154.045 135.206 100.873
153.097 -64.7523 -245.843
189.321 198.282 164.096
313.706 552.955 615.865
180.208 93.2083 76.9319
172.326 113.866 84.1762
-52.0927 -1004.55 -1383.61
175.883 161.384 14.2951
195.602 147.31 99.0696
186.535 181.355 142.342
187.144 11.8398 -0.865999
185.202 117.6 50.8127
77224.5 247075 336994
-2919.03 -17071.1 -19607.2
207.774 276.893 259.716
173.119 105.264 84.9208
143.681 104.299 -23.2232
177.358 106.143 84.8342
230.728 319.345 325.484
210.032 285.577 270.468
227.601 355.464 366.52
147.2 129.608 103.467
191.352 175.003 148.91
120.32 69.8239 -123.831
274.44 498.485 552.005
174.505 96.971 42.7172
196.883 241.493 214.029
161.255 146.656 29.8768
148.561 15.2211 -122.086
176.553 81.3136 15.1899
569.295 1149.78 1494.06
190.975 98.2662 57.2189
233.11 355.603 395.531
168.414 127.939 62.2422
29.6586 -303.752 -455.098
177.512 153.015 103.037
109.443 64.7321 -21.2968
181.442 164.855 117.707
188.183 160.087 132.738
156.638 83.9828 5.47941
222.032 333.488 343.832
918.414 4721.62 5493.87
67.6136 -31.998 -148.045
122.819 -66.6706 -157.506
174.356 183.232 127.395
142.172 -39.3392 -101.349
166.725 106.928 55.1135
165.279 151.519 122.572
169.825 97.2053 48.7298
105.048 -105.291 -190.21
295.611 549.83 581.376
153.809 123.846 90.3559
164.95 119.475 89.2652
309.404 654.7 703.266
158.513 173.729 102.855
180.362 151.925 100.035
170.969 194.521 156.023
241.51 404.845 413.578
124.45 48.379 -42.9102
178.173 130.026 105.657
106.468 44.9194 -31.3411
219.218 322.6 313.302
37.1353 -337.844 -488.878
77.5279 -45.6564 -143.389
178.314 158.775 107.256
211.865 299.456 291.064
157.695 116.16 59.9454
9263.56 24105.9 26715.4
176.871 133.617 80.8825
223.411 358.513 358.622
144.723 124.318 87.4538
179.084 133.264 69.5447
147.881 136.428 85.62
158.311 117.09 60.8879
45.189 -257.214 -335.889
358.401 815.477 866.108
75.6588 16.0683 -96.4564
-830.746 -2707.24 -3269.39
92.4986 -551.944 -798.068
184.201 110.984 76.5609
228.28 370.996 371.887
215.277 314.654 308.322
153.643 81.9343 -7.02122
117.912 -243.41 -398.208
208.228 278.997 262.168
88.3089 -2.08733 -109.753
64.0976 -285.612 -371.363
157.515 155.649 121.791
180.352 140.322 96.9655
178.718 140.705 124.205
183.323 115.504 91.2508
200.1 192.432 142.666
174.076 167.3 101.135
215.235 315.986 305.338
156.224 71.963 31.6354
162.672 138.204 77.0337
-773.221 -2295.02 -3281.85
181.045 168.904 114.751
136.909 105.332 38.7029
174.552 165.971 130.82
174.884 148.338 119.963
148.462 78.6444 44.5482
188.402 179.971 153.891
232.141 373.134 379.385
102.039 -142.961 -153.583
143.799 105.521 75.2952
175.665 126.656 97.1675
140.825 69.0137 16.6075
193.18 110.595 66.8628
179.308 103.95 91.8094
176.249 140.39 113.12
189.718 103.388 43.7911
170.232 100.339 88.4032
149.922 113.566 28.978
169.016 118.806 64.407
-183.451 -1777.86 -2162.12
161.732 119.996 87.1272
258.565 448.859 453.813
144.904 39.012 8.77635
141.817 103.567 55.3422
17.0723 -356.929 -491.064
167.16 158.395 96.3992
607.542 3072.34 3175.17
180.185 156.3 127.806
442.524 1002.5 1114.7
178.654 152.456 108.921
114.932 -493.392 -578.145
183.18 85.1621 29.2125
155.49 85.0096 52.2962
36.9787 -227.21 -314.512
231.916 369.078 388.508
183.593 117.593 68.9457
164.787 -22.2821 -71.8277
182.454 148.511 106.456
191.505 116.217 92.307
384.192 1552.83 1563.33
181.536 149.119 106.107
155.267 110.043 68.3087
223.575 328.256 320.638
127.342 48.5495 -8.14952
182.036 129.837 88.728
184.591 133.436 99.015
159.465 4.22258 -51.9966
163.127 108.506 92.7511
194.636 146.744 115.403
167.259 147.927 108.13
144.765 100.162 64.1847
-310.36 -1273.79 -1663.4
183.985 116.8 95.9352
-30.8464 -317.254 -476.512
418.342 1127.55 1106.82
181.859 95.629 53.3834
175.484 146.272 123.548
1243.89 7165.39 8049.31
159.676 135.017 45.9827
234.735 447.277 455.753
171.693 189.124 122.102
157.52 91.8167 -22.4185
327.853 992.875 1132.05
150.128 58.1698 28.8209
218.907 326.641 325.512
166.837 -15.9165 -42.926
237.878 426.437 437.747
272.347 595.573 585.838
247.14 418.308 423.649
310.447 695.745 732.131
220.283 327.753 317.089
189.8 234.194 201.177
270.087 522.308 569.221
463.687 1298.07 1439.81
206.322 265.194 247.305
555.749 1450.51 2168.55
192.963 250.447 204.321
181.511 96.2759 19.6009
96.5475 80.2712 -61.0041
187.791 146.196 102.034
162.293 123.856 103.381
111.385 125.287 0.265256
174.117 169.04 68.4995
243.698 390.551 405.113
135.4 -32.091 -100.983
168.248 73.1446 33.6113
244.545 380.735 385.544
173.136 150.188 98.5748
45.9589 -86.6259 -207.55
130.04 100.008 47.1009
113.368 33.0763 -12.5892
145.322 109.275 32.1655
189.906 83.706 46.3822
21.8247 -241.311 -360.742
165.704 87.4666 50.9206
95.587 42.4946 -61.4357
177.283 152.281 101.368
175.111 167.66 106.631
311.385 834.81 935.345
77.2068 -86.2896 -220.859
214.173 307.186 301.534
123.607 32.1447 -46.0818
121.182 -225.772 -393.104
177.483 127.082 84.6952
158.543 146.389 89.0458
228.096 350.198 352.113
-1056.31 -5462.67 -6715.69
190.159 96.6974 44.1792
164.342 120.141 84.9129
74.0254 -308.277 -393.001
156.307 88.4064 31.9941
175.973 108.972 74.8194
128.273 43.2903 13.5479
143.935 104.069 45.1407
132.319 -89.6699 -159.722
212.78 303.25 290.213
110.933 52.7506 -19.0312
164.858 132.163 99.7727
91.4345 -231.319 -307.365
108.714 13.4784 -26.0961
263.45 641.816 667.362
142.119 87.2958 55.3208
161.095 102.193 71.8439
150.477 132.119 80.2477
222.635 350.646 343.234
138.695 29.3735 -79.9852
49.4206 -227.443 -308.203
115.402 72.056 -5.04775
55.3125 -199.966 -297.511
178.224 121.821 62.1774
124.261 29.7841 -16.886
248.564 401.83 413.297
243.872 404.415 396.332
165.191 118.509 69.0827
57.1891 -112.795 -203.531
247.33 485.298 509.287
68.1622 -147.417 -289.45
192.537 162.652 122.368
181.024 115.578 77.8043
351.627 729.281 830.58
191.582 126.988 99.4671
31.8707 -153.671 -326.353
127.746 60.8906 -26.7581
140.068 47.576 -9.81291
135.963 86.3146 37.2862
153.541 48.7079 -42.6595
176.796 159.656 111.824
5.33151 -296.972 -329.8
137.244 98.5097 0.553193
-315.997 -2445.91 -3230.58
48.8724 -210.276 -232.926
159.668 15.2049 -48.9082
149.715 135.643 79.5929
183.723 82.6312 37.9915
159.271 96.4424 82.6656
179.235 -23.2123 -91.2899
243.841 439.299 437.278
220.352 326.853 316.572
183.595 130.157 114.636
221.038 341.674 338.722
225.544 371.3 373.906
167.766 143.265 120.037
170.484 124.393 74.5387
182.066 171.864 133.749
231.08 391.705 399.406
389.98 748.472 799.713
151.617 117.283 93.2267
-59.9185 -550.071 -560.394
378.098 907.562 1108.82
169.598 60.0548 12.4855
183.915 121.146 38.2524
165.063 131.826 68.932
178.913 -46.0464 -97.4539
165.771 59.3781 -3.63894
163.754 102.408 60.3645
267.065 460.477 475.413
175.21 140.647 121.799
7024.24 38792.1 42990.8
183.821 138.254 71.779
177.911 156.927 105.899
176.103 127.582 99.9767
168.888 45.4883 9.52101
118.605 48.1688 0.350687
150.161 -74.5242 -169.636
178.387 154.341 122.018
195.711 158.343 127.212
193.522 175.898 148.138
159.957 108.999 97.169
182.492 89.3978 62.5095
193.441 118.839 76.5028
82.5709 33.3605 -75.2104
40.7916 -389.094 -487.917
188.761 69.7908 16.0336
174.747 127.841 90.185
165.183 72.3348 19.564
243.271 457.694 463.495
432.381 1299.34 1561.09
155.166 -25.9391 -78.455
148.932 87.8467 25.862
181.005 72.2262 45.7265
153.833 101.442 79.7794
132.408 25.974 -38.7774
179.383 145.188 110.054
148.747 21.9666 -69.9315
17.8661 -187.85 -219.95
156.017 162.381 27.3012
162.486 -5.74088 -73.0763
99.8609 11.108 0.7666
185.816 65.8045 47.099
167.975 113.196 62.2513
148.184 88.8577 0.745179
208.333 285.845 272.494
149.547 84.5608 -1.36227
169.988 165.449 125.925
160.191 131.428 83.649
171.384 133.18 58.078
49.9474 -95.3555 -190.998
323.484 629.11 677.858
132.611 76.3044 -14.6395
190.151 179.252 153.702
87.7013 -80.7705 -145.611
164.56 134.778 98.5929
252.315 544.553 552.915
168.55 132 110.133
139.87 118.41 86.3865
179.54 137.102 92.8629
173.446 153.394 124.687
125.367 93.5874 19.3675
163.59 136.305 80.2512
185.034 118.331 44.653
90.354 -478.78 -594.355
-85.3399 -422.628 -664.312
174.398 90.5744 42.4648
13.9626 -279.142 -456.687
99.2223 -149.138 -271.836
160.132 130.342 84.5905
159.419 143.206 81.8976
143.689 15.7984 -23.0609
225.721 378.741 376.252
183.497 42.0361 -17.4369
250.074 484.175 512.318
244.247 433.82 440.244
210.36 291.633 277.176
183.026 128.776 64.2571
-51.0148 -1096.84 -1170.16
402.302 1467.27 1713.63
143.303 115.813 46.8114
-533.061 -4753.04 -5143.7
309.826 563.288 607.582
1557 4438.34 5156.91
12228.5 34361.2 44992.4
177.32 127.017 101.472
153.979 89.4808 24.6488
244.193 393.221 397.517
166.026 116.701 71.9277
161.211 139.834 68.1412
44.4111 -419.918 -534.471
123.353 35.5483 -0.946882
186.696 134.819 93.0227
190.176 154.2 108.705
156.236 153.578 119.594
140.77 74.5444 15.251
177.722 91.0998 33.755
138.819 72.6823 60.7957
146.935 59.4594 13.5302
123.581 50.9051 -21.6081
158.953 92.236 79.8102
177.841 124.924 87.24
176.276 164.058 97.0807
79.1026 -285.083 -354.497
165.978 123.664 90.7141
752.779 1637.69 1740.3
91.769 -37.5452 -99.8737
152.702 51.6633 -12.857
189.235 118.016 102.891
191.329 154.117 115.862
-810.042 -2569.3 -3146.55
130.895 76.6891 38.1567
207.516 281.374 265.358
131.986 -98.5478 -219.517
430.392 928.026 962.948
52.1614 -139.383 -228.691
-349.046 -1676.69 -1768.52
184.699 -9.20078 -21.1955
-5323.29 -20352.2 -22281.5
121.302 -20.0405 -53.5287
64.2604 -467.22 -549.404
171.054 82.9148 54.3917
151.676 57.5587 38.5834
227.112 355.654 366.187
121.294 23.1757 -8.01657
230.326 372.213 357.86
324.954 667.296 662.954
186.87 109.159 92.6493
126.96 27.1936 9.06358
144.077 101.837 47.7198
173.986 137.972 118.214
-833.9 -3354.12 -3816.76
136.722 -96.4616 -132.516
-267.721 -2384.45 -3392.47
187.483 143.26 100.219
155.312 -24.7535 -76.6612
142.064 122.795 36.4973
235.001 387.37 412.72
203.197 263.525 244.709
175.471 48.5062 12.7765
924.1 4997.97 5566.37
167.827 132.561 95.555
222.104 336.03 345.624
130.094 81.4997 33.6005
141.265 40.294 16.2139
186.718 147.572 89.2606
4.65517 -629.148 -771.198
184.994 162.836 135.303
106.342 -299.264 -370.541
159.436 61.7452 40.9474
145.341 122.053 50.2891
314.554 821.023 950.364
120.429 40.3615 -15.1011
118.408 76.0899 17.7029
155.023 73.4846 4.79127
168.704 123.799 59.7574
153.136 146.807 85.2015
211.803 299.883 288.711
179.562 140.654 116.085
110.255 38.9756 -39.6913
133.357 93.1193 58.3654
26.1037 -267.551 -303.392
138.35 110.669 45.4761
-26.188 -491.066 -680.173
318.148 612.516 657.841
230.944 384.078 393.745
154.223 141.381 100.136
168.683 143.037 96.0469
167.05 111.236 76.0257
146.453 106.963 50.9146
94.5087 23.8713 -45.6349
131.707 106.553 66.3415
147.162 69.8332 17.1381
-723.664 -3483.23 -3843.23
-648.884 -1712.64 -2433.52
151.411 100.052 54.1221
238.831 393.626 406.07
164.002 115.025 81.4326
-140.134 -582.852 -901.759
95.1589 -3.37312 -43.3516
190.418 165.997 143.293
11989 34641.1 43103.3
189.752 137.505 114.064
94.9607 -55.1733 -66.4534
146.461 99.1819 65.1527
162.194 146.791 92.3267
247.229 528.15 518.287
246.918 503.615 503.74
32.4896 -262.8 -443.442
236.82 433.654 445.094
108.934 -120.169 -173.992
-242.857 -1441.39 -1938.3
23.6031 -143.449 -243.872
133.615 81.7498 47.1865
119.021 34.0862 -11.9606
172.247 132.769 84.8355
81.1628 -275.461 -364.988
244.718 423.71 418.929
302.694 645.144 687.179
160.51 105.688 25.7493
186.803 170.009 127.096
140.487 68.4848 30.3525
157.315 57.6296 -27.6991
283.491 485.474 534.182
309.408 689.423 670.304
238.415 419.052 415.107
174.951 133.451 95.5704
213.315 308.227 294.004
402.35 1376.97 1519.93
87.0585 -48.4114 -67.0323
159.231 146.399 82.5031
185.067 18.2824 -11.2788
263.759 487.416 540.458
169.513 107.946 62.6579
146.138 -228.583 -302.738
1184.12 2883.98 3817.36
184.921 161.737 115.591
115.785 -552.496 -576.813
151.651 -63.6546 -101.489
142.88 91.8585 4.88574
326.254 693.863 788.683
25.7982 -218.617 -307.094
185.905 121.241 41.9077
173.308 110.356 84.6665
166.905 97.6412 72.9923
151.204 105.137 80.9094
221.598 334.748 343.818
152.235 127.305 55.941
173.452 101.884 33.9592
171.512 86.5125 70.8828
170.494 102.2 44.9742
84.4391 -210.517 -289.783
184.403 80.1958 38.2998
183.621 93.5352 36.4151
174.168 153.432 105.758
150.401 36.4117 -56.129
96.7382 -54.2199 -102.305
174.811 166.859 105.407
228.526 384.911 384.128
189.386 180.449 155.101
-642.976 -2195.15 -2838.53
172.566 140.721 125.002
102.105 30.3662 -65.6774
251.563 412.556 437.271
149.93 80.0389 29.2345
216.088 313.583 309.847
230.512 346.654 360.044
123.28 -4.22268 -22.4978
89.3719 -150.172 -246.741
156.972 102.596 51.7141
-69.3441 -398.845 -584.373
122.671 64.389 1.03201
211.415 297.384 287.063
24.1936 -226.248 -353.661
181.478 151.296 82.9342
220.885 349.159 344.108
171.476 129.597 96.901
222.372 333.21 326.308
168.096 154.43 112.186
123.696 -110.653 -155.913
132.201 -1.43829 -102.147
22.5102 -371.994 -412.36
94.9214 40.9212 -42.1324
161.709 88.6291 33.1109
115.955 8.41134 -67.9692
225.486 363.284 357.098
372.723 1421.98 1528.99
180.225 167.156 129.309
232.921 368.304 362.214
181.863 127.676 85.8235
-14.0895 -537.791 -624.301
111.645 -40.0926 -171.047
111.691 30.2919 -38.2796
173.509 149.235 118.766
140.793 78.5044 47.6799
146.337 98.7932 65.3595
165.574 5.4949 -56.4438
246.772 421.896 425.441
129.939 54.0776 15.726
143.218 102.029 43.9413
185.323 167.983 145.167
156.218 138.728 94.2657
169.211 101.029 37.5974
219.971 337.431 328.823
186.452 169.018 124.367
219.018 324.818 312.499
-110.387 -1024.6 -1103.34
67.4938 -55.2436 -78.3205
232.607 360.71 352.316
184.337 143.768 106.132
95.3975 -1.40655 -87.2873
118.658 46.0165 -0.150106
168.884 150.883 121.849
152.439 -53.6308 -84.3354
180.306 147.616 120.091
449.033 1456.39 1782.58
141.961 -282.13 -329.926
82.2738 -63.9934 -100.505
148.421 40.1058 22.4546
101.033 -28.6341 -77.8888
163.614 112.215 58.579
264.194 486.55 489.074
169.855 43.1897 -38.167
188.391 63.1146 12.4787
224.955 356.806 359.397
141.569 86.7943 42.0372
167.278 97.7574 73.3561
174.519 95.0081 54.3101
147.796 51.1114 -5.12753
114.463 64.9734 -29.181
26.2402 -118.5 -263.105
216.92 315.986 313.34
138.732 75.8679 14.2899
-39.5377 -383.968 -568.896
175.636 142.435 94.7397
188.255 116.946 70.2427
225.388 354.382 356.427
511.977 1475.28 1600.54
-69.6153 -379.301 -487.748
23.5792 -176.09 -280.201
208124 529078 613415
234.405 390.67 423.504
185.08 172.356 135.322
141.782 96.9629 55.4523
100.538 -23.7827 -53.6246
115.392 -68.3744 -145.712
225.157 377.874 374.612
1.23377 -237.776 -384.328
152.689 108.304 90.0152
137.743 127.261 69.7486
88.568 -133.432 -174.519
-0.850029 -408.014 -578.009
129.23 104.605 36.5406
192.973 161.994 123.136
127.674 74.4133 29.0414
154.717 31.5888 -9.98497
171.98 152.885 109.865
-187.49 -848.115 -961.642
104.426 -0.638069 -85.9715
152.652 108.793 61.0231
158.217 117.621 99.8395
162.973 111.382 77.4707
215.66 321.612 307.183
268.028 509.773 516.495
107.751 21.7425 -49.8847
147.263 110.278 44.0581
422.834 1232.51 1456.35
415.124 1636.14 1775.73
1110.6 6994.02 8342.6
106.498 10.8507 -46.2864
173.779 126.845 102.688
51.5884 -278.578 -477.07
58.3028 -229.49 -343.191
154.095 -144.983 -203.273
156.548 65.5963 1.04856
195.267 128.692 95.2633
193.41 141.006 106.311
170.318 117.62 77.19
122.216 27.7748 1.25508
167.828 83.3569 53.5268
166.425 153.618 100.112
101.115 -78.6271 -116.524
135.945 58.1586 33.1292
-102.442 -654.078 -784.823
116.488 41.1664 29.4899
-31.7317 -971.668 -1076.42
167.887 45.2305 32.9081
154.724 112.486 76.0036
