ply
format ascii 1.0
element vertex 369
property float x
property float y
property float z
property uchar red
property uchar green
property uchar blue
end_header
103.588 52.9777 21.9612 239 64 139
103.475 52.813 21.2314 236 69 138
124.495 67.9084 28.5543 9 17 2
104.426 125.311 20.2322 29 19 20
124.247 67.1161 29.8368 17 20 11
112.492 64.8136 14.1985 206 191 184
110.875 57.1203 13.962 224 218 218
110.973 57.5059 13.6542 221 215 215
119.549 65.7882 18.3466 50 44 44
120.31 68.4082 13.9682 47 42 39
94.9857 82.4059 24.8345 221 252 237
116.165 61.104 12.0609 214 201 195
120.656 69.5989 12.0709 48 43 40
86.8711 59.0831 26.1655 231 57 129
90.8128 70.0858 25.7513 127 214 163
100.619 73.3772 22.3341 129 212 168
90.8187 61.7341 25.0814 69 55 70
118.158 56.8043 20.4527 218 207 205
98.3237 67.8349 23.7699 77 63 78
112.421 67.7232 13.9874 43 39 36
92.5256 67.967 26.1709 227 55 127
88.8452 66.7163 26.3339 228 63 129
84.8565 52.5405 27.1111 237 60 138
110.713 61.5271 15.0656 221 213 211
94.9833 67.6224 23.7172 228 61 130
90.2967 72.6771 25.5452 211 210 192
98.213 55.6897 25.153 236 62 134
84.6245 67.1542 34.8938 63 61 75
117.837 60.0866 18.0801 214 199 194
98.0714 61.9297 23.9448 70 64 76
114.246 111.389 11.5548 53 80 37
116.321 67.3317 9.35871 201 183 171
118.098 59.461 18.8533 215 201 198
102.098 69.1551 22.2718 76 55 70
80.9809 53.7566 39.0852 238 64 136
83.266 53.1576 33.4816 236 61 138
104.48 70.4205 21.4062 26 40 43
82.0057 58.3584 36.996 63 60 71
83.0171 54.4207 32.7863 236 61 138
111.109 82.6153 13.478 74 152 77
107.812 69.5262 17.6469 64 115 56
86.68 59.1738 28.4517 127 52 85
116.891 61.1102 13.8977 212 198 195
100.818 91.1628 19.8614 85 179 103
93.8595 65.7092 25.0666 231 62 129
118.416 62.0821 14.7363 212 197 192
78.621 58.7295 59.7213 226 55 125
84.5306 68.6512 37.5547 226 56 127
107.228 50.5977 18.8169 76 66 77
100.186 56.2571 22.9185 67 64 75
110.955 74.5301 15.0203 69 145 70
114.613 116.89 11.6947 106 90 67
118.535 60.9535 16.6558 214 199 194
110.929 74.13 15.031 69 145 70
106.475 101.724 18.6715 58 120 57
114.401 106.253 12.5265 65 130 72
100.357 109.744 22.5295 99 159 95
101.43 57.7419 22.2288 66 64 75
94.4358 64.3238 24.6439 68 62 72
108.156 71.0716 17.6326 69 120 63
78.8134 53.3421 47.1599 65 59 71
117.537 99.6384 7.58892 66 132 68
113.674 102.879 11.7857 68 134 72
94.3045 65.3317 24.4843 232 61 129
110.708 80.8462 14.7675 101 191 119
109.883 78.3609 15.4819 108 187 121
96.5519 74.3527 24.5559 222 57 123
113.246 100.889 11.3688 65 131 69
106.604 102.423 17.8534 54 105 49
94.1097 62.2304 24.8445 67 59 70
116.678 103.116 9.91868 61 131 68
90.2631 98.0874 36.3709 75 149 74
101.056 69.445 22.064 199 169 158
94.3986 53.2333 24.9407 75 61 76
84.2009 68.4053 41.0876 226 55 125
87.9024 92.877 45.0619 72 146 71
101.462 94.5142 21.5636 98 194 123
104.104 89.1542 19.6243 70 157 79
87.211 57.7804 26.4326 234 59 136
101.493 63.3597 23.1177 67 61 73
84.78 73.564 38.9389 218 50 111
109.582 74.359 15.6737 108 187 132
77.1357 56.6835 61.9105 229 55 126
103.303 83.5277 18.9169 76 154 79
104.023 68.178 20.4885 45 83 70
74.7218 55.7014 68.913 226 52 124
81.8044 67.2778 51.7895 216 51 111
87.4844 55.9292 26.7422 245 70 145
86.9269 52.2223 27.1101 238 65 144
88.1772 57.5089 25.7567 235 60 137
100.567 62.9763 22.7986 65 59 71
87.1204 55.1027 25.9313 236 61 138
100.386 62.0254 22.3647 64 58 70
94.251 53.2773 25.6741 110 49 80
100.921 67.0978 22.9939 68 62 74
110.275 69.2861 16.9065 48 106 45
83.0441 58.9879 32.6599 70 59 73
103.45 72.9884 21.3664 95 190 122
94.6734 55.8426 25.9874 72 60 74
93.8984 68.5206 23.9854 211 56 113
98.3592 61.4096 23.1882 73 67 79
109.266 81.7687 15.858 101 188 117
94.2462 94.1462 29.2755 100 160 100
121.331 100.652 2.95071 77 120 66
101.13 64.7957 22.2349 64 58 70
93.3876 99.648 32.5925 82 154 78
106.84 98.0648 18.8874 61 119 58
100.503 64.8534 23.4063 64 58 70
100.383 64.2412 21.9666 62 59 68
118.365 111.851 7.84641 93 144 85
78.0223 56.8862 51.8109 68 57 73
128.89 118.688 6.69983 155 69 46
113.611 114.46 12.4835 52 85 42
93.2986 52.9726 26.391 230 65 133
94.699 97.548 24.2327 95 157 94
107.328 61.7194 20.3137 235 230 234
107.819 71.7495 18.0098 68 133 67
128.37 119.119 11.2282 160 71 53
107.532 70.4438 18.0671 67 132 66
104.519 73.3175 18.6808 66 136 66
79.5639 54.7706 49.9495 66 58 71
115.241 118.544 10.493 169 73 57
78.2938 56.5727 52.5379 66 58 73
107.776 95.506 17.9169 55 98 45
130.144 105.627 10.2243 45 35 36
101.089 71.962 21.511 109 200 139
107.702 77.0143 17.796 59 104 49
115.641 120.471 10.1655 171 76 56
106.976 88.0775 16.4097 64 114 55
107.31 75.3456 17.8287 61 109 51
107.527 90.8549 18.325 56 101 46
88.2876 74.0263 29.6849 48 81 64
108.164 71.1107 17.7122 66 120 60
109.468 135.645 16.5043 183 77 61
104.331 82.3841 19.952 97 184 113
89.6841 99.1294 38.7148 85 156 80
107.538 94.2873 16.5911 38 83 28
111.201 90.3853 14.7461 89 183 105
74.9341 59.2747 68.0934 226 51 118
107.346 77.7381 18.1137 58 103 46
98.7375 87.095 22.7966 120 209 151
86.0533 82.9168 47.0382 65 137 64
104.818 80.1244 21.1404 107 197 136
105.124 77.806 18.8096 69 140 72
107.595 91.1981 17.6652 52 95 42
108.398 71.1628 18.3584 69 145 80
98.2429 109.423 23.9067 170 88 74
81.6087 57.8575 47.1869 64 62 73
79.9255 78.8654 60.8023 83 161 85
107.321 79.1311 18.11 62 107 50
106.676 86.0183 18.6112 61 111 50
109.764 88.6602 15.2008 95 189 111
111.14 82.7501 13.4029 71 149 74
117.369 108.47 9.53164 63 96 51
106.827 81.1463 18.3028 58 103 46
107.556 72.6857 18.074 61 115 55
106.403 98.1711 18.8161 62 116 56
107.936 87.9767 18.7143 59 109 48
100.679 63.5633 22.8022 65 59 71
96.1643 108.35 28.1443 161 82 65
128.914 120.535 6.98667 155 68 49
118.05 111.478 14.2248 59 90 46
95.3756 107.892 30.4281 169 81 67
111.163 92.7732 14.5431 86 178 101
118.999 113.565 7.43018 153 74 57
78.1351 70.4393 69.2018 72 156 78
74.8206 57.0401 71.767 228 53 120
79.6852 56.7706 49.9143 65 57 70
112.17 87.3608 12.0342 69 128 64
85.6511 62.8752 32.5694 61 59 70
107.728 73.4748 17.7396 60 111 52
71.607 59.7038 83.8591 67 150 78
118.547 112.65 10.2269 60 115 57
110.632 108.476 14.0138 46 92 43
81.5743 72.4558 50.0776 59 120 63
111.663 113.719 14.9701 55 114 60
81.9302 60.2165 41.601 69 61 74
121.878 100.907 2.47708 77 122 67
102.407 89.3541 19.1324 83 171 97
85.9245 65.39 28.862 70 59 73
79.5024 53.9894 51.1118 70 62 75
112.098 87.0413 12.4847 66 127 60
118.496 79.8534 5.96702 33 27 29
114.526 96.7107 10.336 65 126 67
103.079 88.783 18.9329 78 162 87
103.193 89.665 20.882 86 183 104
112.473 88.7141 13.5985 66 138 65
92.3772 60.6955 34.6722 71 63 78
67.818 94.666 61.6363 9 191 231
67.7668 94.7596 61.5429 9 191 231
86.3635 61.3836 38.3212 241 70 149
92.2634 55.2415 21.799 243 70 152
92.1195 55.5157 21.6047 240 71 152
73.1901 82.241 54.5365 4 192 230
102.044 65.9578 34.2266 114 202 141
85.3268 59.5821 35.8842 243 71 153
101.648 66.8134 12.7595 172 207 177
80.9687 69.5393 48.6683 243 75 150
107.341 65.8016 77.3229 39 27 29
80.7162 68.6373 48.5428 241 74 152
89.0629 64.2801 51.6787 230 65 133
123.756 103.446 59.0321 171 157 148
67.2121 91.5541 52.9836 8 187 227
106.28 65.632 77.8715 51 25 28
88.8876 64.6216 50.9547 219 86 143
66.4886 68.1525 20.6198 95 78 94
75.5712 70.4186 39.1956 246 80 162
87.9565 61.909 42.6102 237 69 146
59.3383 82.2544 15.6269 101 76 95
105.738 65.2588 78.5167 52 21 26
90.269 60.8375 40.2486 81 68 85
98.6624 64.4849 30.7187 136 222 183
66.1118 66.5945 19.4827 96 80 93
132.646 118.938 67.0438 36 34 35
123.814 103.755 48.9201 38 29 30
70.4926 78.9132 38.9457 244 78 160
58.7746 99.1737 33.9881 6 183 225
96.4075 63.0659 44.5937 81 53 68
87.6196 63.097 43.2078 244 88 153
73.6149 73.0244 40.5871 96 79 95
106.523 68.078 55.4638 80 140 89
106.778 67.4073 56.4922 72 141 86
74.7813 63.1841 30.6247 236 78 155
107.153 67.624 56.5561 77 151 92
100.545 64.7013 66.2888 107 209 146
75.1758 63.7934 31.5104 227 102 158
100.189 64.7999 26.9595 40 111 53
99.3725 63.7357 23.2692 159 138 117
72.9831 68.1778 32.4535 249 79 165
106.732 70.0434 28.9077 131 209 159
106.692 70.1509 28.9166 131 209 159
85.829 67.3086 58.3827 128 204 157
99.3766 63.7264 23.2694 159 138 117
92.9139 60.4175 27.1176 69 58 74
91.4333 61.5487 43.4196 99 50 80
72.767 73.376 38.3295 94 82 96
107.016 65.712 80.2477 41 27 27
103.546 65.4905 74.3035 176 79 62
112.902 69.6141 62.5114 105 146 90
102.752 67.145 51.7255 60 119 61
107.161 65.3324 80.8647 39 27 27
84.4552 70.2818 61.4429 123 203 150
115.146 71.4271 59.6277 92 145 77
103.816 67.6538 42.2263 60 107 53
102.799 67.0306 51.7822 61 120 62
72.7669 73.3762 37.8652 96 85 99
103.346 65.98 73.7722 177 77 61
110.427 78.0987 20.5616 110 193 139
105.026 65.6383 70.2642 167 75 60
109.949 78.0617 19.0358 116 201 142
108.375 67.9104 64.3017 105 114 85
109.383 67.7529 68.4241 165 79 64
88.0064 62.3647 44.9363 69 61 76
107.945 64.409 89.9266 173 74 51
111.395 68.9275 66.7859 159 77 65
95.5142 64.0109 46.1871 237 61 136
103.345 67.5711 27.698 88 175 106
97.6976 64.7369 66.2374 109 168 112
112.067 68.8408 67.4054 153 77 61
99.7305 64.196 56.8007 131 206 165
97.6267 65.3123 72.5098 174 85 69
97.6796 63.5114 25.2961 239 67 139
108.515 67.5294 64.0471 47 84 40
97.6231 64.902 65.7373 103 166 109
116.127 84.3589 14.4503 56 95 48
73.2848 73.5873 39.3386 102 90 102
106.862 70.1245 36.6395 89 182 111
71.3315 62.9311 25.4398 94 78 91
106.737 69.2795 37.1412 92 183 116
106.833 70.2027 36.3258 89 182 111
110.804 82.9787 36.7772 63 118 60
99.1371 65.4752 52.4012 144 220 181
103.772 64.4142 79.7342 172 76 60
104.155 66.5897 53.3719 106 187 128
104.591 65.9223 70.8377 173 77 61
108.527 70.1091 47.8725 77 142 88
57.2044 107.466 46.1912 5 187 227
112.772 83.9928 24.8655 62 131 64
76.8337 73.5228 48.1509 85 79 93
97.3821 62.4125 29.0762 227 70 139
77.1625 72.9389 49.0802 88 82 96
71.6264 63.5986 25.8859 97 81 94
107.932 68.5657 51.6679 84 149 95
69.6923 63.6272 22.7112 97 80 96
102.058 64.8909 78.7523 177 78 59
86.176 67.704 59.9015 159 226 195
111.777 72.7893 37.9283 45 80 40
107.938 74.4399 19.5693 65 112 58
100.569 65.2055 13.7583 230 63 141
84.1887 62.0249 41.3087 239 68 147
111.934 69.2306 67.0843 149 82 74
116.846 74.6719 53.9489 85 140 73
104.663 65.7416 71.2213 173 77 61
99.6833 64.8668 43.8389 146 218 181
103.51 65.0537 78.7951 173 76 59
103.566 68.5742 24.2914 96 183 115
111.456 68.7505 67.4584 144 81 72
112.845 83.454 21.6147 56 114 53
56.5362 96.025 21.4106 246 84 157
116.292 78.9698 27.3298 72 147 88
98.0182 62.7677 26.0877 232 66 140
97.9648 62.8679 33.6454 232 218 205
116.059 79.7685 25.7313 73 148 89
107.422 75.2834 20.2549 63 122 64
97.7367 65.068 73.4407 183 82 62
123.888 97.5855 23.2254 28 29 24
97.4539 65.6964 72.5382 182 81 61
97.581 63.7278 24.3747 221 82 141
105.765 69.0303 36.0073 103 176 121
115.295 74.2892 48.8373 79 128 73
116.678 74.3943 52.3609 69 127 66
110.865 71.3982 43.8283 74 155 96
92.5756 65.7286 65.8491 95 170 103
91.9494 63.9239 49.3074 231 59 133
110.645 74.7681 24.7867 63 103 53
110.65 72.0238 42.637 69 147 87
117.646 88.1819 15.5808 61 84 56
116.073 82.9738 9.85932 40 53 35
104.03 65.3117 82.2087 169 76 58
108.084 68.1545 52.7748 81 161 102
101.107 65.4969 45.1649 108 198 136
93.1494 63.5078 54.6361 75 125 76
72.9501 82.6732 53.9457 3 189 228
106.185 64.1322 84.7683 164 73 54
117.041 75.95 46.5069 80 131 75
108.845 72.5415 28.5832 69 140 74
98.707 64.9775 19.9653 230 64 140
90.9645 64.1247 56.8102 69 149 86
80.2351 70.8353 50.9373 83 77 91
100.558 65.1065 49.1858 118 205 150
111.285 69.2474 66.562 151 77 66
106.145 65.0947 86.561 178 79 58
133.249 114.127 14.6919 76 65 63
126.141 72.0452 7.90297 219 205 204
134.921 132.095 15.9231 82 76 76
121.922 59.5464 8.8418 224 214 215
125.319 68.8459 7.71894 59 50 53
125.438 69.1014 6.7732 58 49 52
125.668 68.5839 8.11117 58 49 52
88.0739 68.8098 6.60407 174 204 178
69.068 99.2261 8.48345 133 208 151
88.7997 79.7643 5.50152 177 233 206
123.938 64.6434 8.74818 227 215 215
122.263 96.8122 11.6563 63 111 53
135.606 88.4838 15.5575 75 115 52
84.0444 80.0839 5.6685 78 110 69
114.448 101.92 10.7415 88 161 80
113.097 105.49 5.88882 86 159 78
90.115 84.1642 7.56714 155 213 172
83.7592 71.7889 7.96504 229 58 128
83.808 72.3505 7.4109 226 55 125
139.308 98.4354 14.7962 73 64 65
127.867 101.203 12.6096 84 115 45
90.3741 86.1717 3.57109 145 207 166
88.3664 81.2987 5.29712 147 224 172
88.2699 80.4797 6.42884 153 221 172
84.0266 77.5499 5.1443 214 47 101
83.9869 77.0816 5.46883 221 53 114
86.4967 94.2746 3.16344 70 130 68
71.7459 113.22 4.20338 175 72 53
95.0952 99.5886 3.96036 52 115 60
91.7783 102.784 7.15771 154 66 54
97.8978 65.8823 3.41139 56 96 46
78.3692 93.8293 3.54093 90 162 89
93.1717 68.5788 4.69731 139 209 159
117.366 101.25 8.69184 90 150 78
128.796 92.4959 11.7065 70 110 48
140.653 107.066 17.1214 242 210 31
83.9247 78.6462 8.2343 77 99 63
