165.702 91.421 47.3273
167.595 95.51 76.2197
157.6 43.4442 42.7911
170.729 108.938 72.4189
145.925 59.9524 10.0957
175.887 38.8432 49.1404
170.899 76.7665 49.0648
170.426 96.5373 78.8893
174.518 90.9331 58.2757
176.032 90.6175 66.719
165.825 82.5164 73.5677
138.998 105.158 33.5936
131.989 45.5641 17.1749
185.583 49.2164 -2.41155
33.0292 -230.415 -939.434
142.796 81.2696 20.3155
169.639 76.5443 35.6234
153.011 72.9879 29.9132
92.2073 59.8959 -24.0185
143.07 44.9788 35.6166
176.957 69.1758 51.7859
163.893 16.7334 -15.6799
148.571 65.2322 52.4564
185.726 68.4023 38.8901
153.776 58.6045 58.367
101.741 46.3249 -69.2265
129.151 48.6825 -21.0156
136.962 39.2329 5.86875
159.447 71.3254 46.9926
166.784 -16.0793 -186.764
131.557 25.6287 22.1641
175.675 89.8863 74.7937
147.282 76.8669 50.8399
167.269 95.682 76.1331
175.586 90.3275 47.1346
-314.328 -383.643 -1009.86
151.339 5.1791 -12.5097
350.117 215.582 512.194
144.845 57.9022 -12.4254
147.918 -1.26596 -50.1589
244.658 155.311 331.443
137.598 32.561 5.44886
125.212 23.5083 17.2843
174.433 75.6833 33.5273
152.524 85.3006 34.8516
161.228 85.2946 -1.1934
145.573 24.5936 -59.8175
182.648 90.6796 46.6651
167.389 67.5244 47.9604
170.287 95.9142 87.6747
160.991 75.4217 0.428584
169.602 67.4355 40.014
158.496 106.656 37.2275
179.462 51.5291 36.9571
161.602 65.9513 54.2975
175.242 108.287 67.8221
111.012 41.3898 -93.8931
139.127 70.6681 22.2218
166.65 83.0637 74.5761
164.693 78.4516 -10.8687
162.641 73.761 43.6943
144.408 37.2001 39.8587
144.383 79.8409 17.5406
175.304 90.0969 68.5434
88.2937 66.3083 -58.0933
60.5181 -69.5967 -135.73
156.067 93.4732 86.8407
-2.74041 -127.515 -421.835
96.6632 -9.96703 -97.5699
170.445 117.827 48.5246
143.626 70.0055 34.3793
152.255 85.3828 56.6868
151.612 35.3778 28.5731
143.056 77.1649 50.6129
146.423 83.6084 46.882
211.886 115.223 172.574
207.453 108.534 150.454
208.165 105.204 161.64
224.681 132.345 214.708
176.374 89.3936 69.7496
150.954 25.4727 -13.0572
144.687 102.533 61.2178
275.939 176.503 319.869
601.008 396.453 1031.53
101.602 4.39339 -126.957
-364.158 -194.849 -1167.11
144.823 86.245 19.4963
178.725 84.2812 30.0611
153.218 41.7871 -2.95715
143.956 57.1837 3.88083
169.863 91.8458 89.0871
140.864 66.127 36.8836
87.9713 -16.6902 -78.4262
110.826 49.1812 -15.7649
-1828.56 -2878.21 -6005.74
141.185 47.3205 39.8811
418.106 363.108 686.589
288.291 238.759 403.392
119.371 24.4182 -102.288
-0.408028 -5.20733 -298.878
238.947 146.72 244.199
121.986 -11.1802 -97.8407
222.153 125.808 193.789
205.014 100.137 142.539
135.72 88.9819 -55.0576
219.097 122.554 184.471
222.941 125.185 194.081
260.302 187.722 315.877
223.911 131.234 203.465
135.867 83.502 11.0042
188.243 74.3007 52.3303
-2709.35 -3590.31 -8344.97
78.0487 -120.23 -241.078
342.914 281.629 579.229
338.703 212.526 435.218
52.2131 0.268397 -150.583
112.173 19.0902 -24.7561
146.382 66.7223 -5.72647
179.351 88.5524 87.915
153.996 93.2584 43.9839
10.2041 -69.7182 -441.971
139.659 71.6219 -11.5887
246.274 193.893 358.616
149.382 34.9897 18.5424
126.836 14.1174 -7.26118
143.743 43.8981 1.92781
141.576 57.7393 29.4937
161.746 117.029 57.164
48.7527 -96.842 -388.063
133.012 28.4026 -69.2831
171.876 70.0367 20.6552
182.357 65.2156 43.5893
131.838 57.6897 -34.4183
125.263 5.46599 -69.0397
138.852 45.8625 -27.6631
52.1391 -208.195 -398.486
160.045 98.2239 -3.94988
165.954 77.6329 49.6905
158.783 93.065 89.7439
152.484 57.1954 20.113
177.755 49.9518 25.2949
169.28 102.473 83.8149
160.323 111.052 65.5518
154.285 61.9444 38.1293
177.999 81.3037 47.1103
145.388 65.616 -36.301
160.667 85.0059 73.3775
134.306 -19.792 -101.684
150.885 67.1577 12.5095
132.912 10.0599 -152.556
175.146 105.646 94.3215
176.996 97.2944 91.6212
-871.569 -315.021 -1848.14
1182.46 247.039 2489.49
155.186 38.3474 -27.3024
-131.393 84.8474 -461.671
286.996 120.409 338.161
202.788 115.511 165.736
190.376 89.8774 115.725
86.4612 105.006 -117.555
191.265 96.6019 141.046
161.845 39.8954 -76.4455
220.729 124.27 245.294
193.381 111.329 134.743
177.545 107.811 19.2228
88.4248 -20.9965 -42.9511
172.356 90.6526 48.6046
146.535 98.0658 -6.39515
132.999 21.2434 -6.46101
423.138 358.121 697.279
165.004 69.8437 42.8485
134.79 59.0647 10.0193
142.233 84.1646 47.8565
205.485 111.04 149.191
229.737 130.092 212.736
108.244 64.8999 -64.1481
209.953 115.336 165.981
157.078 82.7558 -19.4707
185.967 96.3944 110.118
247.357 132.636 335.947
213.499 114.183 173.539
143.696 54.0521 -23.8356
188.932 102.984 105.195
167.642 91.2511 90.4408
98.8653 104.715 -109.505
162.559 44.1503 16.3878
219.096 118.226 218.118
192.468 93.382 112.289
118.746 42.456 -200
171.935 70.3192 70.3011
154.473 91.7216 -6.52733
189.766 103.251 147.119
214.287 117.096 164.574
184.672 85.6792 82.0913
183.933 36.554 -15.2602
162.734 65.4315 45.7284
192.675 35.2719 18.4107
180.508 81.8646 5.38367
223.482 118.213 264.481
186.604 100.981 134.324
166.533 60.713 60.8411
294.523 119.347 364.556
247.905 130.959 265.736
226.677 145.388 254.704
125.934 115.34 -28.1685
-205.393 -73.6329 -717.46
198.226 102.761 121.118
261.144 133.922 281.207
194.353 86.077 97.2773
248.752 145.855 341.098
197.252 106.658 118.515
195.868 105.749 103.328
152.341 118.072 10.3194
-170.541 132.811 -539.611
166.789 129.944 50.1768
160.717 122.507 -9.52219
119.107 137.311 -33.8004
103.779 58.2589 -60.6751
154.28 50.0299 43.8223
145.032 85.1617 20.0164
142.123 78.2773 40.74
127.778 41.5723 -5.44755
-127.93 -138.277 -583.486
157.018 63.3811 30.3748
153.175 84.555 45.7429
69.7595 37.5607 -155.907
119.121 55.8991 -74.6235
130.07 62.7588 -18.3427
153.466 86.1653 34.9855
156.698 76.2443 25.211
154.358 59.2769 21.042
162.567 84.8523 44.9212
153.036 77.2217 50.1506
156.549 77.2866 59.4641
160.034 41.5223 38.6112
163.467 63.9143 59.2517
123.511 48.112 -1.34695
143.482 80.7388 -1.04135
148.48 78.5644 15.5374
160.24 70.1541 54.6404
140.303 65.1956 36.3591
156.358 70.5105 45.4458
160.472 76.8154 58.4168
79.7867 -25.4151 -96.6421
136.117 66.4104 -2.98742
163.182 71.3247 54.9117
122.132 34.5431 -4.13835
8572.5 16440.7 36362.8
141.374 66.6203 -23.7382
988.908 2130.14 3945.75
89.9712 66.7856 -56.0947
134.601 53.3801 8.11131
164.168 92.7006 77.963
150.366 34.7415 9.26444
59.2182 -71.3045 -138.48
162.816 -5.55097 -54.2278
149.544 14.7231 -17.1835
160.553 93.4059 27.9764
141.966 52.3853 39.981
-258.997 -342.76 -1283.41
111.098 -10.8798 -151.64
158.735 95.2983 16.449
174.838 60.391 10.1523
177.325 72.0998 47.5626
128.034 38.7552 -26.8499
127.609 46.8088 -44.1287
152.724 84.714 56.9137
163.358 36.5315 -17.1545
128.246 -40.147 -120.417
173.338 89.7543 78.0517
147.397 47.5596 -5.77492
169.128 40.6779 45.4283
119.824 29.059 18.8355
57.802 -71.0175 -139.504
185.123 21.9925 -6.33069
184.444 9.12201 -7.27094
163.197 71.5305 11.599
162.46 43.2041 40.5527
160.155 40.1726 45.4714
209.733 112.225 187.064
62.3824 -15.7248 -398.653
106.391 2.94725 -76.5258
32.0249 -174.832 -526.602
160.169 57.606 18.0579
178.757 81.1478 66.7059
161.868 61.3017 25.3194
166.137 69.011 43.1264
153.802 67.6653 52.4165
161.402 84.6436 63.8944
177.593 83.0179 50.4599
185.165 89.0975 73.4742
181.637 8.09351 -32.2695
225.047 125.645 221.91
186.755 72.4445 12.011
151.991 91.8396 63.4628
187.688 83.1701 11.7522
149.073 71.2581 74.5452
87.7325 23.9379 -45.122
117.853 10.6103 -24.6268
137.88 67.9459 31.3374
158.645 68.1922 59.9344
152.166 71.8552 51.8111
136.169 61.8383 -38.6075
131.701 45.142 -51.6148
137.357 27.7428 -34.9511
171.945 76.4934 36.8179
121.26 17.4538 -74.1123
133.169 5.66316 -47.4384
-13167.5 -11116.7 -25060
134.961 28.4004 27.1948
215.477 117.668 171.241
207.471 108.172 160.819
204.951 105.263 142.063
148.344 85.5042 72.1323
-405.058 -558.138 -1112.96
123.402 63.8497 22.8776
-142.546 -119.026 -483.553
178.236 41.0789 29.3376
147.33 70.8531 65.2122
120.942 64.8699 8.46843
112.393 12.3095 -7.99766
284.537 219.345 376.092
208.146 108.267 168.229
145.158 58.3093 -27.7176
124.883 46.0996 5.0777
232.594 148.928 239.731
119.404 20.9624 -6.01926
25.8887 -20.3112 -240.09
149.716 56.0291 35.2465
53.9121 28.2417 -225.148
164.042 70.1841 47.2034
247.428 137.743 264.069
99.7869 -62.7076 -139.714
242.653 150.583 267.84
-499.738 -693.708 -1854.53
129.474 -11.9605 -53.7022
173.386 76.7287 58.7228
167.384 71.9575 39.1918
153.901 45.7502 16.086
348.595 283.797 533.459
237.757 145.377 243.86
214.86 115.707 183.264
50.3296 24.9947 -185.835
552.43 409.363 1049.61
222.243 124.632 192.777
190.158 99.1334 118.693
185.849 81.3665 48.9891
181.92 86.0527 17.5939
156.225 81.1364 -24.2914
393.721 430.669 1042.64
155.085 -14.5975 -85.3566
10.3282 -111.9 -383.296
170.61 66.9068 57.7451
149.56 41.926 -19.7867
140.212 95.7948 20.8961
175.922 66.6126 63.0428
-10.9203 -373.641 -873.958
176.631 84.0531 52.9641
240.927 169.849 317.221
166.243 83.1145 41.6394
162.518 84.3705 32.1162
173.495 74.746 0.152372
131.514 5.34097 -126.21
204.91 107.413 163.407
158.172 47.7423 -48.271
270.767 165.716 377.811
183.525 80.5086 56.0398
162.977 59.65 8.6507
165.731 58.2736 57.0785
212.303 113.813 176.438
168.857 88.6685 10.3596
168.334 89.4232 9.76747
165.005 64.0303 -10.6436
167.862 33.787 6.09285
165.063 69.0972 18.1569
180.352 89.0918 74.705
174.123 46.293 -50.9156
173.781 76.0592 37.5863
163.068 87.3414 7.62825
87.8908 -80.3127 -218.466
165.924 87.3263 20.9787
178.071 81.7999 -20.935
217.073 118.401 177.921
140.357 97.2491 19.8144
193.917 95.3618 117.903
146.886 97.4852 -52.6804
241.925 142.471 237.078
196.192 95.8703 133.267
185.508 43.292 -0.461447
209.081 111.13 153.648
191.073 100.369 105.089
181.688 54.7258 49.9088
170.147 49.0294 -21.1666
269.192 202.739 315.623
58.6723 100.672 -152.549
100.563 87.8644 -25.3002
191.095 89.0457 87.2118
192.057 90.2925 112.814
169.876 68.2098 59.2522
223.509 126.299 217.977
144.634 76.2312 6.55601
150.743 86.4825 36.8359
157.248 83.8642 55.8315
153.278 78.4593 61.581
107.201 28.2438 -166.94
146.227 40.9924 27.2919
153.291 51.5701 48.6566
129.306 89.3371 -17.1971
147.725 26.1096 2.61173
113.072 25.6229 -89.0192
117.518 77.0549 -12.7803
60.4974 -117.179 -365.142
157.185 7.20804 -78.45
113.107 9.34588 -79.3876
607.891 426.839 1343.32
144.539 88.8561 5.15962
152.457 63.6808 58.7408
153.971 44.7909 0.928296
149.485 46.2624 36.608
141.944 86.3904 52.0405
127.465 98.3886 4.49264
73.8943 -49.3685 -163.42
451.86 312.211 778.728
144.456 70.1352 55.9018
149.807 85.462 18.8523
132.797 26.2414 -24.9719
143.492 7.67807 -46.7842
114.161 -87.5837 -298.246
176.482 60.3531 45.1094
103.744 1.4156 -160.326
128.683 37.6778 13.3111
-478.79 -418.329 -1681.07
158.519 74.8206 45.1676
144.603 52.2001 50.0271
109.906 52.5809 -30.1553
160.058 96.3766 17.9749
46.4663 -57.4731 -224.667
386.619 301.211 637.027
111.085 29.7317 -74.0911
114.335 27.7315 -7.57273
132.819 37.4623 34.0368
132.309 56.1908 29.846
138.2 86.7814 40.0965
108.132 0.989138 -31.8753
140.12 55.3474 26.5553
158.687 85.3462 45.3197
104.059 10.1203 -40.6604
133.705 43.5038 24.2802
150.535 69.2616 62.3055
152.857 85.4372 47.4802
-33.6354 -169.634 -327.602
181.778 67.2808 11.3829
155.956 85.7041 21.7873
129.729 37.6154 25.7214
140.665 27.0418 -5.77101
1678.23 1135.45 3096.78
134.239 59.4297 -28.2015
157.819 84.1206 54.9992
167.742 57.7407 56.2485
154.986 77.9838 39.3983
243.812 146.761 257.24
175.146 59.998 9.90029
158.836 49.2833 34.0825
159.041 48.3566 -4.40427
157.703 61.7573 15.2324
136.115 73.795 15.6696
204.783 104.942 141.751
171.137 83.0678 53.0708
173.834 60.1969 -3.3016
385.758 269.287 582.136
163.608 28.7678 15.6429
149.342 56.2709 0.883716
162.328 76.9982 27.1987
154.927 42.427 32.7988
125.331 29.3041 -32.7373
165.344 39.9944 16.7869
377.681 320.349 634.719
167.721 32.5942 33.2989
293.385 205.261 361.049
162.084 91.3909 54.2666
113.887 -48.4311 -133.998
161.806 51.8731 -24.9964
216.076 116.438 186.158
170.294 88.3018 44.5944
60.5214 -75.6992 -209.657
61.0429 -69.4234 -133.879
163.601 77.1783 10.5924
169.186 75.1363 34.181
159.837 84.4643 57.7944
148.145 93.9498 49.3846
-234.216 -170.401 -905.277
183.816 47.8431 38.1054
158.387 40.0797 -92.1831
149.169 73.2676 15.8559
133.669 62.5313 32.0781
171.188 65.186 -9.45282
152.559 61.2829 26.0901
184.043 79.8099 54.4956
171.723 59.7746 21.6378
-366.448 -544.057 -1489.85
159.707 91.2407 71.9488
180.7 82.2731 38.6888
94.2843 -57.0035 -274.248
171.116 89.4747 66.9324
184.542 80.3022 65.4707
119.785 33.7974 -39.1336
155.883 44.0791 25.3656
170.844 46.0973 15.486
151.142 69.7266 -42.1597
136.613 54.8681 -19.7912
158.871 26.9367 -41.0507
172.188 68.7536 50.037
139.978 52.1698 40.2038
166.841 67.4555 37.4166
188.26 80.3691 54.0399
143.977 64.2853 18.7757
141.216 61.0564 15.2445
128.662 40.3334 -56.9421
148.295 55.0157 34.5239
177.982 89.2433 67.8023
176.523 82.9395 60.4269
234.302 148.052 231.101
520.777 445.537 1436.27
213.506 112.745 170.025
158.653 82.7886 41.1917
250.163 193.66 307.919
123.925 58.3673 -29.3982
118.649 50.0789 -79.1862
211.419 110.658 162.614
190.851 79.3534 43.3568
235.867 155.307 239.904
178.331 1.70922 -76.8866
185.786 73.0439 41.0432
159.472 84.0836 63.1349
183.03 82.2481 59.3987
178.301 73.7955 69.428
217.042 119.263 179.064
196.305 95.1449 132.852
379.676 195.598 559.683
-411.299 -316.531 -1347.91
144.998 99.4248 1.34496
134.67 61.716 -1.02448
138.881 96.4641 41.1665
182.858 91.2198 22.9125
179.633 82.757 41.2713
244.721 153.332 247.684
179.426 35.056 -7.10705
60.7411 52.1224 -125.945
166.112 90.273 82.3296
159.949 45.4062 15.2658
168.537 26.6625 2.43192
149.464 28.0416 6.28326
131.865 58.7812 -35.6166
146.417 30.1835 10.8177
-23.275 -47.0129 -397.359
150.597 76.1614 61.0539
547.839 686.568 1205.55
21.908 -107.106 -248.01
149.615 84.8517 59.0678
42.3934 -29.3039 -251.093
339.143 331.349 558.949
169.023 81.0893 69.5224
233.762 136.257 233.296
160.928 38.2241 -0.563575
-495.775 -736.03 -2581.71
-866.835 -1146.05 -2938
157.834 65.1597 52.1149
175.936 61.2327 13.6281
241.321 151.398 287.635
137.426 41.5096 21.8032
115.39 35.4759 -57.0858
147.696 62.0649 48.5633
165.758 59.6266 35.0671
152.292 64.2179 60.7222
118.706 80.3656 -27.0818
133.04 89.574 9.68979
142.044 68.9633 53.3913
152.602 37.9639 11.2947
160.987 71.6847 -25.5693
125.308 26.737 -149.744
142.644 48.7227 -2.05055
158.168 82.5305 38.5492
152.36 88.4245 -16.0569
151.607 35.807 28.8394
163.372 46.8941 28.5659
134.316 -26.5793 -114.026
164.573 61.1885 13.9322
283.843 175.2 419.595
131.172 31.8689 -119.675
215.06 117.615 189.67
123.939 68.3867 0.238098
159.255 77.9043 69.2009
238.61 140.41 257.068
139.46 85.9903 36.397
171.716 66.9953 48.5177
167.144 29.8575 28.3629
168.099 85.3466 33.5694
133.431 66.1868 -91.6616
153.855 57.676 17.2368
174.878 39.9194 -26.745
166.502 35.5273 -35.2144
118.169 49.4967 -62.2769
67.5991 -53.3535 -195.886
137.553 57.96 32.2903
167.845 34.1286 34.9018
138.744 87.8689 41.4613
95.6221 12.8673 -49.4686
187.821 47.7101 9.19374
148.504 77.8576 72.1466
239.842 161.278 250.513
97.634 28.6308 -53.3835
196.666 89.8542 115.859
154.587 87.037 23.2389
173.713 54.7223 43.1969
161.32 52.6923 47.7654
149.518 46.8261 7.53204
121.251 17.7649 -58.9839
187.961 83.3113 26.4215
182.517 76.5784 48.6297
154.711 47.6371 -21.2205
149.702 86.2304 37.0124
163.056 57.7598 39.6292
126.812 19.1152 -23.2735
136.295 36.6793 -15.0181
235.308 156.516 265.079
142.958 46.3749 19.5919
153.105 86.2266 34.7061
163.102 -30.0857 -103.286
224.593 132.733 204.485
136.337 44.2563 2.59556
107.671 13.4921 -21.6402
115.734 19.2072 -53.9348
108.945 7.41246 -5.14369
164.988 90.8014 62.2706
128.524 0.911067 -40.9696
448.926 452.473 1261.31
144.963 57.2627 -71.8884
171.928 83.2069 71.2723
181.819 80.3217 45.9473
174.935 82.0484 40.9252
170.934 76.7128 20.8737
271.563 230.44 380.268
166.224 59.4236 20.6839
165.499 75.8567 66.5763
161.189 45.6253 53.2938
29.2171 35.0176 -157.218
689.873 465.259 1658.61
149.242 65.134 53.9769
-465.214 -345.774 -1232.46
342.516 214.165 451.086
103.13 -176.893 -490.208
170.696 57.3802 47.1308
165.084 71.8766 64.7489
-108.752 -96.6257 -418.574
126.321 96.7156 24.5421
78.1131 58.2406 -97.2928
159.197 84.6661 80.3047
153.425 95.6221 16.1381
-154.618 -178.185 -618.411
159.592 43.8299 51.45
178.271 90.1139 20.5793
183.187 56.9004 36.3652
161.117 72.4019 -2.232
156.363 74.9804 2.93178
234.48 131.135 252.496
112.468 82.2395 -94.8666
145.432 61.6994 -17.8497
160.125 75.8193 35.2676
124.998 44.27 35.3483
146.831 49.7241 -35.4174
139.492 52.3055 38.252
173.052 89.6196 56.1469
219.104 123.09 204.962
184.459 74.8973 32.3681
175.16 56.9634 -37.9361
154.173 57.3001 55.0195
148.389 44.3869 -15.3098
148.857 61.3465 47.3876
146.415 86.2059 50.9
163.682 85.117 75.4183
140.846 75.2816 24.5028
162.116 39.0823 1.54674
128.525 16.9303 -38.3051
142.341 84.8359 17.4497
157.618 85.3651 66.8056
157.25 86.7242 78.2763
149.961 92.2681 58.2646
203.217 105.514 157.272
189.606 77.8437 61.7086
137.515 75.581 39.4495
128.077 36.2912 12.9816
157.94 48.1737 -4.83768
157.902 82.4579 41.3577
164.569 88.9024 10.2912
165.47 87.3228 20.383
170.448 64.4122 9.43203
115.226 25.6007 -115.679
159.773 85.4812 75.1537
135.666 41.5427 31.2805
79.7545 55.204 -79.0369
134.498 52.9811 -3.08164
-262.078 -259.82 -882.752
421.989 328.541 684.249
170.814 37.7358 22.5318
158.692 84.9773 55.8876
164.026 83.216 42.6026
158.462 77.5482 69.3524
145.283 88.6936 13.7397
183.501 91.6032 20.1219
153.141 24.4463 -26.3561
78.4444 -16.2983 -170.165
152.482 82.5199 41.8269
144.747 75.5872 48.3055
162.292 84.9324 71.6221
212.969 115.506 175.685
157.29 83.7886 65.2045
129.034 22.1573 -78.6242
106.38 0.084383 -34.3656
140.107 82.947 32.6443
150.318 71.4103 -15.292
-39.9102 -234.153 -435.203
68.7833 -86.031 -162.048
138.655 -24.276 -119.982
167.546 64.1045 7.1688
168.681 46.1162 15.5201
169.755 82.8802 52.8263
119.144 -13.0058 -66.6465
137.125 55.7927 3.87475
116.848 38.3064 -133.76
121.344 28.6053 19.7957
351.387 244.247 497.145
102.616 0.36735 -79.8324
330.315 220.337 496.843
153.734 91.9026 74.0527
112.379 61.3592 -103.723
159.636 84.4246 74.3472
562.292 597.269 1218.24
68.6637 -9.61381 -206.492
108.188 42.7684 -102.141
6.15009 9.16603 -359.329
158.418 13.2868 -68.7032
146.83 60.2126 33.9623
107.998 34.9654 -18.062
79.3046 17.2582 -146.068
136.374 39.206 -101.083
140.25 79.1143 30.0655
154.423 9.59752 -91.2152
151.113 55.9997 36.9109
245.009 169.438 265.122
498.52 809.62 1309.58
151.833 83.8855 69.7011
16.166 -85.5641 -208.717
177.726 81.3108 69.1332
-182.043 -266.109 -753.7
98.6543 33.005 -23.7783
114.587 53.6219 -6.20104
151.547 71.4675 47.8164
45.6378 -74.9082 -191.234
143.687 68.4098 62.5474
99.2301 8.06444 -113.616
243.678 155.303 331.067
166.703 71.5687 26.305
178.538 57.714 40.841
210.439 113.575 175.189
160.655 81.1248 -3.16071
152 72.8304 17.741
100.118 38.7561 -65.7824
173.965 74.7578 1.63028
166.034 26.3458 -10.054
30.8537 -13.3611 -155.971
314.157 166.891 407.865
177.936 95.1927 -8.88728
166.97 54.1531 31.3599
178.85 71.0148 62.5812
192.367 87.3843 63.24
148.653 70.4197 20.3795
147.354 68.4899 55.1471
185.551 27.218 12.5301
318.167 336.844 686.265
155.61 74.4667 0.916995
153.853 37.9665 -29.6418
161.607 50.2226 4.99425
144.265 44.391 35.6622
55.4351 -43.858 -196.911
145.345 82.1279 2.24769
141.422 84.4821 49.8503
87.2257 -68.9483 -152.857
177.902 64.9552 43.29
35.2928 -64.6556 -253.599
166.131 53.6076 -1.40638
101.9 6.86232 -133.819
55.9448 20.6554 -219.054
146.913 75.6449 26.6571
140.166 64.1936 33.3594
139.88 84.0002 32.9212
156.228 85.5968 71.0391
170.66 87.7213 45.519
112.417 -7.45716 -34.6449
53.3903 -56.7361 -150.719
163.674 74.007 42.1707
153.618 43.0203 0.497256
167.21 55.9382 53.9549
219.525 120.72 179.406
147.848 92.5102 60.0879
151.606 83.3211 69.2405
211.882 112.247 180.145
-2.79128 -104.759 -267.825
163.949 54.1671 32.7697
102.803 -6.59967 -115.208
182.402 82.3734 24.6189
148.119 49.7118 -37.5609
143.542 87.619 23.971
164.613 51.5275 18.9449
181.415 54.4401 22.7196
183.484 70.4567 34.618
122.668 66.9202 -31.5111
151.021 88.1749 13.126
124.055 96.6246 21.2995
109.366 39.1424 -41.4549
140.449 85.4663 36.6031
145.814 70.8456 67.3799
162.669 64.301 23.1568
462.465 296.609 658.136
364.388 293.411 529.898
128.525 25.3485 -14.1064
148.385 49.4606 16.6608
123.422 32.7373 27.6665
155.496 51.2255 53.3009
149.069 56.9392 1.41586
158.899 67.916 30.8104
953.465 1130.19 2141.91
167.03 68.7486 -4.96836
129.907 -39.4405 -85.1203
228.927 131.854 228.855
165.298 64.2048 -12.7163
147.975 61.6959 58.6525
150.424 85.5274 56.6578
150.296 74.4727 16.5885
140.648 68.5667 32.1126
156.332 65.2413 53.9427
181.525 77.5679 13.291
187.458 85.7931 69.7096
307.448 188.352 428.701
162.659 71.6208 37.3365
168.828 78.7511 60.4552
156.923 47.4358 -20.4368
389.721 364.51 727.638
146.807 21.278 -51.9465
286.375 165.377 353.939
167.792 71.5615 25.1687
163.269 67.2972 37.4913
4163.5 2114.65 8354.65
129.727 59.89 -24.5027
133.068 69.9966 -9.93156
176.468 69.758 51.5022
162.57 37.0947 0.644073
-904.968 -564.349 -3492.56
147.018 53.5077 35.5955
159.718 82.9843 64.5881
152.744 58.8696 22.2935
162.995 28.7572 -6.65796
160.491 46.8082 54.5404
151.914 83.9297 8.66951
155.518 90.0126 58.0093
147.933 74.7335 70.1537
57.2874 39.8484 -161.959
160.323 45.7937 51.5862
133.45 74.7017 1.66765
84.4137 16.4132 -114.23
101.405 37.9163 -48.7386
88.1048 8.69529 -37.8115
-46.1737 -99.246 -430.354
-48.5602 -114.07 -452.726
138.064 21.9027 -113.148
-111.666 -132.118 -472.402
66.8926 1.65051 -120.358
137.487 75.7782 6.88222
153.841 85.4016 58.1053
145.898 51.5535 39.5878
121.542 31.2787 -27.1835
110.975 -17.2064 -219.557
135.835 95.0053 35.895
153.855 54.9437 52.4577
124.457 49.29 4.24913
155.397 63.4779 59.2508
98.6405 54.624 -73.2124
136.882 67.4362 40.8852
157.557 90.1534 59.6977
103.086 25.0937 -44.9532
168.105 21.1385 -51.1647
148.725 59.9883 53.5769
124.8 59.7181 -1.12702
105.89 58.9794 -58.7758
142.072 77.6441 37.3497
151.817 86.6308 59.5907
152.19 84.08 59.5108
117.198 12.7085 -25.0978
135.664 39.5295 16.0871
200.687 102.473 157.239
59.507 -51.2794 -164.857
5.59492 -97.0513 -285.786
134.697 31.3348 12.2442
-436.615 -711.858 -1270.29
199.574 101.031 150.384
160.659 49.9109 11.9972
165.797 27.2122 24.9968
-295.234 -552.257 -952.989
154.928 39.8238 -4.89022
65.3636 17.7594 -164.923
524.573 567.721 1183.52
39.9585 -106.428 -232.288
125.698 -28.1666 -84.6222
147.254 9.63611 -14.5963
198.633 97.9978 139.588
216.948 117.4 184.217
218.143 120.428 184.561
70.6576 -15.8774 -110.653
231.955 135.116 219.939
172.152 36.2897 19.1159
30.8372 -140.32 -442.376
218.387 120.169 178.392
101.694 33.6087 -109.111
164.95 12.5631 -85.9859
157.303 69.42 60.1953
463.714 604.173 1174.07
157.31 92.9179 27.8326
139.223 82.5583 33.2233
167.686 8.50886 -31.8664
162.348 69.5054 16.9251
173.645 34.0056 -19.4017
295.291 217.521 422.132
164.908 67.6668 51.2998
157.047 68.2792 27.4032
140.209 32.2737 15.0115
158.397 82.7663 42.2745
167.297 84.4449 63.2859
165.838 77.123 68.3973
169.306 90.0016 48.0262
72.8083 -54.5145 -317.39
180.805 45.2302 12.131
152.298 82.4834 53.6827
160.482 76.6563 68.7285
135.28 75.218 49.5074
125.015 20.4403 5.28313
106.65 -2.65853 -40.7269
63.4392 -21.3079 -129.984
121.196 34.4885 0.878256
82.8881 31.6099 -90.113
250.721 150.729 272.426
99.6368 18.6559 -32.6575
141.891 83.3381 49.1142
221.358 126.772 196.029
79.354 -39.0798 -106.05
123.269 44.4231 6.96205
50.3891 -53.1945 -124.5
113.291 9.15241 -10.815
-303.26 -510.657 -1035.47
1024.6 1192.45 2042.74
-82.2608 -195.897 -504.389
395.057 316.856 614.659
-2341.69 -1882.14 -5737.67
260.247 228.885 423.535
159.411 37.4348 41.0099
153.677 86.3726 36.5899
144.643 39.5573 18.6321
129.934 46.3785 -30.0097
139.925 88.0447 8.86258
136.291 34.0883 25.0108
128.949 25.5303 17.0462
296.371 185.511 390.261
114.104 25.2162 -40.9042
349.609 194.226 475.433
503.152 321.287 734.59
170.482 55.9909 39.3619
160.671 24.029 -68.3775
153.118 50.3477 36.4531
142.829 93.4015 14.792
157.706 59.5055 14.7657
144.955 11.9089 -53.9156
157.991 57.2418 38.7403
32.0983 -31.0454 -200.111
164.964 85.0986 73.8374
158.219 31.4281 -9.93646
160.72 83.9997 42.2311
89.2068 -155.859 -369.583
182.409 45.9547 30.9487
382.914 230.171 572.022
139.896 60.0542 -29.8859
175.868 24.9829 -4.25411
72.9238 -31.2811 -367.592
-73.6132 -388.905 -1177.44
126.56 -147.268 -318.739
157.262 66.6261 34.6557
163.207 52.7436 12.6259
61.2791 -267.453 -497.383
189.111 73.5955 47.2288
153.915 58.1308 32.3665
133.135 43.6104 -44.4425
169.362 80.6148 69.1255
174.886 51.1004 -1.81406
