150.409 12.0324 60.9852
160.874 12.8814 3.81955
164.312 29.673 30.8562
217.842 96.3072 175.93
201.11 71.9325 76.1711
257.166 152.388 201.356
197.037 66.7473 128.016
201.617 48.5674 348.914
256.564 151.633 226.636
187.125 57.5801 1409.36
142.17 6.0746 7487.86
187.895 25.3348 455.621
190.089 62.3073 64.1675
198.462 57.5144 3695.38
192.385 59.7656 114.449
216.883 98.014 67.6255
169.183 27.0857 881.069
264.076 75.2472 1441.24
237.467 125.696 168.414
243.843 134.263 172.984
210.348 83.4263 495.904
237.155 124.386 184.331
223.62 92.5093 166.209
233.468 113.297 423.908
229.978 114.366 176.648
206.455 82.3041 83.6128
175.54 98.5591 1405.57
196.72 31.3482 742.374
242.632 134.717 287.166
190.759 59.9435 77.2046
142.016 -6.99028 26.1703
244.411 60.3805 473.707
172.296 189.149 321.602
277.831 98.5158 343.817
259.887 54.3693 434.966
198.292 116.091 125.409
227.924 89.7064 288.422
1150.44 -14.7516 2478.02
837.451 -6.68144 2514.02
210.887 144.569 326.684
217.389 -9.94442 128.06
198.903 139.623 347.127
263.765 83.4905 410.536
-57.9277 125.529 2139.83
399.532 -0.385212 562.615
246.915 43.1024 138.706
168.531 16.9198 65.4227
367.375 6.36552 530.044
688.959 -7.32389 1201
-120.849 -5.34536 1904.73
359.881 41.3736 800.099
232.107 70.7845 180.38
-152.378 198.896 1379.71
-3176.71 337.801 9997.56
-652.358 20.4059 5327.82
139.191 -6.07274 1095.2
227.11 -8.45861 232.822
247.572 -8.11621 299.213
317.483 72.994 589.115
1052.97 -11.6484 2997.72
116.424 -6.50599 429.696
388.795 -8.3785 914.579
215.782 74.1334 261.151
-191.095 -2.5121 297.043
583.842 -59.6818 1059.35
-90.9253 -2.49093 657.028
145.83 100.955 69.0743
125.232 -4.4051 639.519
213.715 30.9042 46.4758
78.3087 -3.09019 404.412
-461.984 151.849 1825.17
250.285 103.002 175.261
257.174 36.8733 399.884
324.48 21.7453 433.032
213.806 69.3321 47.0832
231.638 138.283 184.361
228.778 -2.32151 203.458
181.895 142.887 515.449
298.014 53.4299 236.403
197.653 -0.936947 1024.33
246.082 62.0438 91.6172
322.859 25.9487 614.879
217.76 88.5111 444.637
167.485 -6.61546 323.911
244.453 41.1522 90.6338
157.402 0.412666 587.973
231.876 131.04 328.377
620.608 -30.9389 2420.14
888.889 -122.604 1499.45
-62.4578 52.5561 916.338
113.046 13.6207 508.233
237.423 12.1699 94.3352
105.988 32.5729 437.63
214.081 43.3295 412.476
489.686 -10.7581 931.991
4824.79 -384.322 23830.2
-211.839 -2.38 995.475
223.393 -4.60647 41.7163
805.077 -35.8515 2551.91
400.525 -0.469231 631.975
16.0912 37.9698 1427.83
269.861 7.93117 1087.37
212.073 19.1628 102.599
-21.9551 85.3895 1076.75
281.616 -5.60852 513.026
233.243 51.0191 138.819
342.171 -8.12389 2182.5
104.008 8.12408 506.191
227.299 19.2 310.295
150.67 29.4783 27.8639
293.996 2.01859 395.663
173.949 4.42535 368.412
25.7492 83.6379 551.001
302.129 10.7767 518.304
2.69978 55.7693 167.038
37.426 162.413 45.483
92.6363 151.836 76.4916
99.8502 149.214 85.9591
70.6206 161.936 41.3911
-2.50655 166.531 66.5154
-1302.59 119.18 1390.09
117.096 144.474 104.321
35.0043 166.694 52.5809
73.5971 152.528 47.4056
103.002 153.304 77.9054
312.022 53.8138 410.58
86.2117 161.883 48.6639
-53.8366 174.816 118.615
-3.47711 171.572 71.1935
88.2248 136.879 74.6766
66.4877 143.809 41.5237
95.0592 145.968 70.6927
81.7313 154.264 45.8924
73.2532 155.661 34.2369
90.196 164.39 42.4313
1418.03 38.2167 1682.68
52.4514 124.141 41.6045
139.132 139.89 122.108
60.031 135.551 37.0338
-53.1316 181.096 144.95
129.449 147.365 101.246
74.5537 144.972 39.5238
120.527 128.072 111.082
119.624 154.104 80.235
-118.341 167.864 212.729
141.745 129.953 131.438
136.095 134.75 119.445
-121.342 188.548 243.809
-121.075 191.477 246.788
157.722 136.84 141.006
385.595 14.0973 546.94
95.0495 128.943 74.7602
116.788 132.373 95.4812
121.728 132.395 100.772
-96.3148 144.763 175.348
-105.907 167.619 216.882
-110.472 171.992 227.408
157.61 127.655 146.31
68.6609 172.288 46.8188
57.6265 114.707 38.4661
57.4546 115.98 36.3585
109.861 166.449 41.4015
68.9887 126.19 37.456
70.7444 128.02 37.4795
158.214 142.979 125.821
-76.5129 126.212 145.619
135.21 117.528 125.948
-1438.31 140.031 1864.77
149.898 148.943 106.462
14.7768 182.802 102.434
147.506 125.763 130.329
40.5534 91.3853 36.7514
-99.5809 171.674 235.758
101.282 160.259 30.1208
167.348 129.819 149.012
284.488 77.8651 358.398
-338.602 46.9346 394.227
-218.132 215.001 442.16
-1045.82 340.625 1643.62
68.1313 115.964 37.4724
94.583 121.683 64.0372
171.665 138.675 141.945
172.776 139.439 141.996
-72.2801 109.154 136.118
145.469 115.675 134.418
46.0635 96.5014 35.9309
-22.1908 116.892 83.0264
95.0617 139.013 41.1248
119.322 141.43 67.844
91.5633 98.0077 83.9548
-71.5227 150.631 191.661
162.171 123.638 144.222
102.28 150.638 32.8469
177.241 128.005 157.67
121.246 159.119 46.105
-791.346 243.05 1254.73
92.264 111.991 64.7679
94.1279 113.681 65.1434
129.874 169.205 42.9578
-18.3308 100.523 77.5717
102.381 123.036 61.7722
-135.707 102.556 231.94
-1744.39 506.028 2882.98
66.3345 82.0375 63.0938
89.4629 130.347 33.873
78.1857 92.576 64.4183
-63.9203 130.61 174.945
101.572 141.486 34.0933
2384.73 111.214 3164.19
7.33167 70.3422 53.3388
-733.489 -122.455 770.58
61.458 96.7128 33.7192
114.142 152.273 35.2903
100.097 99.0566 82.6317
-22.1274 71.6959 71.6557
-179.132 190.288 415.269
-21.6481 73.1073 72.2589
121.667 162.805 29.9734
197.644 135.432 168.723
73.3592 108.542 31.8185
96.2959 179.025 42.6053
134.025 101.664 123.43
-803.218 248.723 1357.27
-13.8082 88.4822 74.655
90.1549 119.549 38.9091
37.4297 190.792 125.749
112.636 124.335 62.5357
190.883 141.193 149.929
156.46 108.709 143.237
-10.4018 102.219 82.043
-53.447 115.757 159.708
130.531 133.773 73.7274
166.819 116.027 146.843
168.275 117.12 147.476
-450.294 121.924 732.445
979.443 -160.49 1655.96
89.2513 94.063 64.25
178.85 124.09 151.99
-451.317 115.793 735.048
-946.174 181.344 1526.62
-647.785 184.95 1106.18
95.7722 104.642 57.4827
-1613.13 366.808 2735.47
-216.892 210.497 529.848
-60.8331 58.4295 107.705
277.546 83.8371 345.266
190.949 134.072 154.039
-1834.7 394.074 3116.61
85.1131 108.426 34.3231
79.5704 69.7039 76.915
145.715 103.64 127.623
183.698 136.518 139.15
1611.11 -155.665 2607.86
74.3207 72.8569 63.4345
143.196 102.331 124.863
109.941 131.795 35.9502
197.804 142.484 150.668
71.2464 71.8572 58.401
156.771 111.167 131.341
89.582 141.83 38.6022
211.952 134.369 181.499
-283.842 175.631 609.405
87.0564 83.9607 63.7694
-18.8739 44.6588 69.4114
-46.6646 46.7246 89.2055
81.1702 142.702 45.0388
67.8167 86.4349 30.3209
93.6693 155.211 42.4598
-1102.52 220.334 1904.63
-427.8 248.544 933.105
126.624 104.734 92.1952
-6.86002 60.3659 69.1426
128.287 86.4274 119.076
123.091 103.609 87.7517
166.581 122.729 127.069
-45.1582 63.2409 110.709
107.423 107.228 58.6034
-41.8087 160.287 238.899
101.479 169.482 44.2587
-248.361 226.192 640.991
179.151 131.215 133.344
198.016 134.996 156.488
202.094 133.327 164.8
95.5755 111.801 32.2859
76.6601 58.8526 75.7782
-26.5941 80.5835 111.736
190.971 137.76 140.785
120.787 181.209 37.3876
116.827 84.4865 100.659
107.45 105.292 57.4629
104.907 121.811 30.67
-364.598 307.973 946.842
210.149 127.556 183.44
-18.1591 31.531 65.4753
-31.2423 100.018 149.366
51.7736 78.4271 37.9839
49.3281 95.0341 47.8471
119.579 84.6558 102.69
128.051 93.5311 103.383
116.031 104.992 68.7967
216.783 137.016 179.756
-21.0384 29.6482 68.2243
155.251 116.724 112.42
-295.324 467.262 1077.11
-120.268 36.5353 204.075
96.2885 107.072 33.6729
166.034 114.077 132.044
-94.6181 33.2469 161.109
48.3854 125.123 67.3464
10.7147 140.384 147.613
-47.3815 28.4455 88.464
126.614 109.426 76.0937
-191.138 68.7952 364.458
-117.474 140.483 350.334
0.333946 165.395 201.016
175.861 122.211 134.611
-76.1157 28.6876 130.179
-54.6186 49.5998 125.989
-25.2743 140.196 208.333
-91.8088 168.679 353.584
-37.2531 169.954 269.439
179.449 122.165 139.563
-101.365 29.257 172.37
-484.171 275.833 1128.34
353.848 -2.62157 592.462
66.8505 87.7301 34.365
5505.47 -1394.86 10749.6
21.3248 115.493 103.381
-126.278 169.747 415.704
105.696 157.447 41.3161
1720.21 -91.6672 2895.63
5846.72 -867.9 10571.7
149.07 90.2701 135.291
175.425 105.029 156.177
178.055 109.061 154.591
195.745 126.381 157.981
-116.489 26.4773 197.389
107.526 100.923 53.4161
181.827 136.133 121.515
-424.075 43.8013 713.937
25.9242 114.005 95.9946
140.937 85.3865 128.459
37.6879 69.1931 47.673
36.7377 102.537 65.7466
42.1216 117.227 75.9756
172.679 106.201 148.862
186.207 131.677 133.858
186.466 132.28 133.405
-29.6708 84.6951 145.69
130.381 127.204 50.2912
199.188 139.452 143.238
201.597 140.23 145.99
-519.277 273.626 1206.3
-4.86268 192.624 261.975
871.766 -32.1226 1472.76
-16.8668 17.7289 63.2761
-68.2781 89.1978 216.423
106.399 70.7085 91.8198
85.1616 84.107 38.011
104.573 96.0228 52.1405
122.806 128.56 34.4482
286.826 62.8297 395.257
105.257 70.0925 90.1412
88.1745 83.9189 42.2891
106.041 117.75 22.0892
175.702 103.445 155.808
214.443 130.729 179.113
59.8986 82.4612 39.1269
62.5708 107.741 50.5459
148.776 126.915 77.4336
218.331 142.602 167.879
-342.349 59.6206 625.252
15.5017 30.8213 46.8138
100.781 94.1931 45.7913
131.943 118.939 60.5497
140.093 121.46 70.193
143.22 124.047 71.5216
136.163 128.781 53.0513
253.307 7.83199 421.473
157.709 104.667 122.992
175.129 113.064 139.261
172.721 115.964 131.052
225.567 138.308 184.995
54.2901 116.695 64.7538
106.455 126.077 25.7077
158.177 137.866 74.7468
158.21 139.062 73.0453
-678.412 135.31 1296.08
1428.02 -228.191 2697.94
115.075 92.4334 69.8861
150.551 107.614 105.635
139.451 116.257 74.5415
136.7 123.329 59.5619
-14.2522 47.2912 80.975
97.8029 91.2853 41.6947
65.7388 106.545 49.035
147.323 126.876 71.1342
-237.855 136.377 582.165
-170.643 144.126 482.144
126.374 72.7024 115.922
134.348 106.44 79.1249
101.816 124.472 30.1118
188.725 121.212 147.447
187.799 123.862 141.959
225.248 141.566 178.113
72.4455 73.2679 26.5126
61.8529 78.0064 37.8503
7.49564 91.7131 112.49
24.8188 101.702 98.3866
-207.624 183.221 609.208
-185.556 188.981 580.849
148.866 85.0317 133.9
164.768 97.7727 141.551
147.566 108.036 97.311
155.842 113.625 102.85
195.059 133.855 138.455
194.961 135.036 136.524
81.3344 49.5174 72.7832
81.0403 85.924 27.4881
39.5891 98.942 71.704
53.431 103.517 60.3548
142.076 84.5957 122.208
153.969 102.481 115.416
230.923 138.283 191.658
-88.3202 5.57805 148.859
25.6071 60.6875 59.6009
95.4451 89.323 35.9455
95.3602 90.1284 34.5903
91.3003 106.678 31.0788
129.343 121.75 44.4927
224.828 143.168 173.759
-542.541 15.5411 932.82
-838.884 361.395 1954.67
113.169 91.6799 61.552
111.003 94.2543 53.9911
56.5288 114.233 68.5988
162.535 95.8062 138.837
152.254 101.064 113.383
150.545 106.108 102.844
161.025 111.07 113.178
202.966 128.373 158.404
203.424 130.288 156.288
33.7105 91.3978 74.1752
33.2157 111.037 104.733
133.228 82.6045 108.245
137.09 85.3366 110.697
154.738 101.801 115.87
164.04 107.136 123.667
220.837 133.371 180.899
219.82 135.098 176.541
-128.256 3.26498 218.565
-85.6863 24.3719 177.838
27.4255 87.8138 80.788
32.1394 89.7991 75.7439
20.651 97.5693 107.171
32.502 109.179 104.533
40.9279 112.731 95.5228
4053.58 -1128.84 8646.74
-2109.32 980.968 5088.14
144.346 118.262 72.3804
193.583 134.294 132.401
-40.497 0.343114 83.5032
74.0304 65.235 31.5485
129.587 92.8227 85.0371
122.98 96.8481 67.5271
144.93 106.028 91.2841
217.85 134.422 173.416
-152.399 1.09419 260.637
-132.332 26.6115 265.046
43.0007 89.3778 63.9625
66.7598 98.1437 48.7837
307.632 34.3433 480.471
156.987 98.769 122.497
161.885 107.665 117.34
221.373 134.278 179.323
-119.864 -0.703311 203.751
63.8325 77.98 39.8298
40.442 87.1872 65.3871
47.2845 91.1405 61.8376
30.1453 107.37 110.076
-16.4675 123.557 215.382
126.805 83.8656 92.4604
108.765 90.6587 50.7717
110.803 93.8943 49.337
108.18 102.189 32.0596
128.104 110.615 53.6505
161.565 100.82 126.36
-71.6745 20.0537 155.205
107.807 95.8249 40.2733
78.8435 109.966 47.0457
68.1245 128.886 79.6422
-1271.03 9.35138 2225.96
-0.0915051 34.3633 71.0307
88.7493 75.3452 37.7225
83.4709 81.6676 26.4078
122.957 104.738 52.0381
125.268 106.655 53.11
-533.111 -0.600386 931.2
-1253.07 147.119 2416.62
296.502 27.1001 474.706
107.97 88.8594 49.515
156.86 112.611 98.3678
163.107 116.307 103.586
172.648 121.32 112.535
185.92 127.06 126.892
-243.403 -4.53793 421.899
-93.1501 43.2564 232.627
47.7884 98.9594 71.9334
35.598 107.796 106.99
-53.7231 145.872 322.531
126.801 90.5722 79.0702
121.255 95.3446 61.9051
118.883 97.2644 54.752
151.173 111.449 89.4835
156.923 127.147 75.2032
224.894 145.223 166.623
226.128 145.479 168.393
-231428 878.06 408443
89.1892 74.3043 37.2695
94.4718 77.9894 40.8482
103.411 86.362 43.5739
138.291 101.146 82.0824
77.0181 167.844 129.983
1618.86 -10.575 2869.76
85.4226 38.6528 85.3755
128.673 66.9484 117.742
150.539 84.2411 129.438
118.084 95.2819 54.6973
117.733 98.8806 48.4513
74.9638 114.299 55.4724
86.3237 117.446 47.2581
11.7869 -10.0268 35.6314
78.1598 38.7058 71.5689
120.918 65.853 105.009
119.93 86.6024 70.7157
103.314 92.2706 32.2919
126.184 104.809 53.2849
67.323 146.811 117.209
41.6973 169.636 198.552
122.918 163.95 45.2574
-92.3648 -9.80231 157.25
9.14303 49.4789 75.5249
104.627 88.5962 39.4529
111.651 93.4959 44.2786
116.956 96.0987 49.6511
116.723 97.3391 47.2837
107.33 101.183 24.4791
118.781 105.702 37.8012
168.484 121.627 101.434
168.911 122.572 100.709
-62.071 55.8112 206.854
125.019 63.2045 115.095
130.622 75.3158 106.021
109.52 95.1619 36.9176
123.093 107.597 41.603
139.519 126.042 41.9174
65.6332 192.794 195.721
207.362 119.105 174.215
-14.2162 -11.3118 59.6722
93.3416 72.79 42.299
100.288 85.5885 34.5288
110.091 90.152 44.9266
94.9344 96.2551 27.9042
121.161 110.157 33.1634
-5021.02 697.17 10144.1
105.884 49.6075 100.787
63.0599 66.3315 38.5333
134.574 100.095 72.3924
141.932 103.51 80.2453
206.156 133.746 148.119
200.786 137.724 132.113
153.948 81.2888 136.62
164.14 97.9631 128.522
199.673 122.271 154.159
-92.1084 -11.8674 161.077
46.9225 59.731 49.2734
91.5767 85.4521 24.4901
94.522 87.0314 22.7805
103.531 110.683 29.5829
104.531 117.083 32.7505
139.85 175.154 38.7621
954.512 -21.4219 1750.95
651.24 -14.9148 1190.83
163.338 93.77 132.872
170.515 98.4313 138.476
172.115 102.032 135.63
209.623 130.717 158
-901.772 -215.771 1310.57
64.5103 94.8607 55.6491
67.9907 96.4782 53.4603
165.702 88.6338 144.831
158.522 94.6817 122.026
155.869 97.8069 112.172
158.796 99.6099 114.624
228.093 135.447 183.675
227.089 137.211 179.014
124.338 104.519 43.5175
120.595 107.048 32.6249
127.665 110.477 40.0375
129.682 112.118 41.089
204.027 135.404 139.53
12.9091 105.571 162.115
1056.22 -175.7 2195.63
132.55 79.1822 98.4204
149.617 93.6146 106.488
147.638 101.695 89.8587
140.629 110.112 63.4633
145.626 112.809 68.2856
144.142 124.622 46.5567
227.81 136.983 179.958
-215.923 -12.4713 395.719
-164.944 30.9177 371.935
-2.97588 78.0904 149.987
4.00661 80.8786 141.637
34.6127 107.533 128.335
169.168 99.8848 131.352
225.72 136.127 177.115
-166.363 27.3908 371.441
48.3127 97.57 88.4724
25.0779 107.622 147.679
1284.22 -298.63 2836.53
158.215 98.5814 112.569
152.868 103.561 94.5696
159.905 107.868 100.62
136.744 120.21 37.6381
141.183 123.218 40.9815
81.9662 61.5842 30.2856
107.824 82.9495 43.5931
77.827 95.3199 46.858
115.049 108.414 19.8476
123.938 115.387 20.7244
146.305 123.693 48.8148
229.337 135.064 184.714
110.999 84.5814 45.9018
137.84 97.123 75.5423
140.778 99.8735 76.5361
129.957 104.532 48.7039
149.327 112.334 72.136
155.237 115.297 78.3336
177.602 124.253 105.475
178.237 124.704 105.924
238.93 143.653 188.336
-155.468 49.0953 394.449
42.1747 98.5953 105.988
-21.2496 119.766 259.155
124.865 103.032 40.6964
118.163 106.592 22.2875
120.932 109.257 23.1089
124.412 111.635 25.736
125.5 112.855 25.7766
128.384 115.01 27.6498
164.951 102.137 116.993
158.71 107.229 96.8689
150.477 112.899 72.0476
150.188 114.974 68.0896
155.007 118.008 72.1689
237.418 143.989 184.529
-133.034 49.8292 358.301
-20.0272 121.323 263.174
-3.43828 153.303 284.566
76.4897 173.336 167.037
112.757 85.1103 45.4884
145.308 100.083 82.2992
137.328 109.246 52.0862
140.682 111.102 55.362
178.836 124.869 104.754
238.769 143.652 187.034
109.159 106.389 25.364
172.004 92.655 144.473
172.668 93.4471 144.422
160.532 98.7393 112.621
154.743 104.292 92.4355
200.081 128.685 138.068
240.774 144.346 189.351
1425.2 -3.89066 2683.58
79.0536 71.0203 31.9277
139.409 98.1213 72.7246
150.073 111.379 71.0062
154.41 113.858 75.1477
179.987 122.937 108.79
-290.361 -34.6914 525.988
-289.944 -9.72854 566.701
-351.114 152.596 953.212
-915.217 318.562 2304.47
-1291.07 602.98 3493.85
153.893 95.0868 104.653
137.613 105.959 55.3772
135.77 109.82 45.4124
132.99 113.717 33.5943
-81.1089 61.1478 288.78
636.566 -35.414 1245.82
123.922 63.307 99.5565
127.61 66.2951 101.638
128.849 101.521 45.0674
131.92 103.975 46.8589
148.632 110.533 67.9839
192.435 131.568 116.911
193.145 133.496 115.047
759.543 -7.61016 1439.3
87.0426 65.6241 23.7772
120.813 104.984 22.805
141.101 121.006 34.6902
2148.37 -383.523 4756.33
157.251 87.9741 120.674
160.658 100.471 106.211
144.347 111.462 56.0894
175.961 99.8573 136.595
173.408 105.233 122.542
207.291 124.507 155.823
72.5331 58.2325 31.3232
23.4259 82.7029 131.349
104.223 106.515 33.4678
113.499 110.414 26.7622
-873.721 471.021 2533
-964.921 507.807 2772.59
173.719 106.079 121.074
215.889 133.797 156.362
217.504 135.033 157.417
-198.62 -12.5266 405.042
-183.509 8.80173 411.732
590.665 -13.4212 1137.82
637.167 -42.1464 1277.39
139.48 88.0695 83.9827
208.46 124.787 156.668
79.17 76.9981 38.971
77.5959 81.8664 44.1373
123.929 100.321 32.3072
120.057 108.568 19.5127
145.916 118.427 44.5825
146.493 118.991 44.7522
208.149 140.046 129.791
236.187 137.679 188.73
7.15121 2.94747 60.462
-23.449 5.79116 97.3267
37.0072 63.0973 76.2353
59.9212 74.1446 57.4693
15.1281 135.55 243.143
-178.563 212.359 755.78
155.701 97.0078 99.0704
158.109 100.925 97.1149
156.288 111.93 74.6466
124.865 102.086 29.0866
230.93 140.148 173.503
233.001 140.948 176.225
245.205 145.425 192.676
17.6628 80.938 147.011
-19.8346 96.4125 247.728
120.843 75.0619 66.5785
117.42 94.8196 25.7766
125.447 99.3379 33.9369
128.967 105.297 30.667
146.727 116.076 47.3738
162.882 121.764 69.6548
-178.542 30.4878 451.631
61.0851 113.876 119.267
24.2835 128.74 217.955
24.853 130.625 220.068
156.797 93.9973 104.638
155.47 96.3129 97.9924
182.027 111.295 125.057
209.909 125.773 155.634
123.219 95.0149 35.6007
159.011 111.445 78.5952
164.575 121.541 72.249
233.442 139.74 178.05
-57.9789 22.7466 203.008
61.5408 75.2497 58.7458
121.964 99.6436 24.0393
-57.3143 44.438 239.763
19.2929 79.6552 147.355
45.2301 131.769 185.783
199.574 119.372 144.73
199.572 120.112 143.441
246.769 144.796 195.407
90.6155 70.0371 23.8625
72.4356 75.3172 47.3697
134.979 103.573 41.9732
124.165 111.221 18.9212
77.5546 131.078 121.456
134.429 151.963 43.3759
243.093 148.77 180.831
-159.157 168.961 664.336
180.703 95.1055 148.168
163.311 110.671 85.8298
192.762 123.892 122.241
116.432 96.7921 17.1524
114.583 98.608 20.5526
140.815 109.875 40.7773
14.5908 77.817 159.579
1.73955 123.782 266.297
-43.5947 154.106 411.523
173.075 151.475 32.9607
37.8145 -9.68021 39.9262
99.4946 40.0305 78.1629
94.9612 81.2951 28.7666
110.742 88.5722 17.1141
104.718 96.4755 29.7851
147.651 116.12 42.3868
182.045 128.454 90.7954
219.402 122.946 176.533
-36.6728 -8.53742 115.74
-9630.18 2008.87 23323.8
127.575 91.1698 43.7194
131.682 96.8625 42.0692
147.849 103.974 62.6933
134.139 111.642 20.9175
-311.424 -12.7489 675.071
7945.22 -1098.29 18229.1
-2295.86 1064.44 6666.28
219.475 124.936 172.339
63.9287 44.3896 35.8492
59.5501 62.9443 55.3125
62.3759 69.8219 57.5684
139.176 106.583 38.89
222.206 138.137 154.203
1098.08 -7.13215 2222.32
155.308 75.3172 127.2
218.931 123.286 173.464
214.475 127.013 157.56
153.486 103.204 73.2679
224.784 135.553 163.405
194.666 157.952 60.8694
2033.6 -467.384 4996.43
668.274 -7.73734 1340.25
-129.739 8.21011 348.027
-125.3 11.1134 343.982
96.7452 92.2225 37.2598
144.728 109.896 41.7938
106.064 52.5937 63.04
88.926 56.8376 19.501
172.489 103.572 110.321
169.579 106.284 99.3416
163.09 111.335 76.6521
222.757 138.241 153.147
-258.388 -10.8329 586.627
241.981 140 189.918
100.468 62.5156 31.993
102.275 65.5441 30.3171
189.679 115.083 124.65
241.926 142.269 185.428
-111.901 31.6344 359.609
-1923.76 902.413 5749.98
-1033.12 613.991 3352.92
515.46 -8.4103 1033.77
52.6179 17.2624 28.074
130.342 90.8679 42.2069
151.354 111.772 48.6718
189.841 115.551 122.862
239.567 142.795 178.785
-100.434 30.1301 338.292
23.8237 76.2963 158.523
123.478 62.1915 78.3132
174.934 96.4548 125.363
191.283 112.499 130.874
253.404 148.082 198.256
191.957 130.554 98.9613
254.033 148.308 198.917
-28.2144 95.7224 307.564
656.476 -89.4085 1492.98
192.956 112.976 132.664
-32.6453 -10.2483 124.886
158.847 103.49 76.6572
195.085 129.438 106.666
46.906 35.1089 51.3933
106.02 69.4965 24.7274
113.067 82.9477 15.0843
128.581 112.263 19.5989
116.937 123.382 51.194
168.023 141.721 24.9999
254.002 148.262 198.127
-178.929 -11.524 442.892
-21.4482 93.4411 296.595
163.947 100.084 91.7694
217.163 132.703 146.744
-1167.44 -318.22 2024.54
-127.644 121.587 582.375
126.046 79.7781 46.1312
115.475 120.971 53.8387
3421.14 434.803 6578.26
3074.77 -11.5304 6655.34
-509.12 197.195 1560.47
255.852 149.362 199.309
-134.186 -9.9528 357.933
6.54022 55.3455 171.632
499.439 -17.1305 1045.55
171.453 85.5886 133.119
153.757 103.233 60.9336
213.778 133.425 136.348
186.255 152.595 39.6408
134.944 57.912 103.632
231.991 140.016 163.344
257.47 149.488 201.86
4043.85 2.95569 8866.23
177.907 92.4646 132.824
169.691 97.8146 104.393
126.043 73.0531 53.9328
234.057 139.238 168.689
65.2129 3.67892 49.1068
90.7922 58.5628 23.0307
75.5308 156.239 218.612
198.392 161.582 45.936
61.4312 5.64898 35.6972
125.771 53.8258 88.0434
168.977 96.9481 102.584
182.762 106.64 115.005
258.241 150.707 200.243
69.9959 81.5616 90.7614
-686.217 343.386 2291.76
179.573 90.9625 137.225
192.012 104.269 139.733
235.386 137.381 174.011
247.822 145.176 187.104
-699.012 27.4867 1725.26
190.229 102.753 138.02
-20.2879 -10.4073 121.545
1051.43 -28.6399 2345.64
619.523 -21.673 1352.09
194.418 118.306 116.817
227.706 159.58 112.7
249.625 144.859 191.169
35.1887 20.5161 62.5557
68.1589 80.4952 99.4568
459.982 -12.5373 979.002
163.078 83.0654 112.504
165.747 114.857 56.5282
176.333 126.569 57.9961
272.88 139.912 254.037
469.428 -8.64263 996.487
461.406 -10.003 980.682
159.242 74.4689 119.745
158.549 82.5679 102.251
172.984 92.9144 115.32
200.416 116.573 132.314
-175.741 -10.978 488.191
86.7759 17.8714 61.8332
137.532 79.7166 57.8816
211.811 125.847 139.581
261.789 151.841 204.496
-21.8385 24.7538 204.644
-17.2322 44.9555 233.771
79.7193 98.9036 114.728
140.343 145.662 65.9771
261.132 150.433 205.527
263.022 149.96 210.88
456.998 -6.7201 974.182
144.943 77.2564 78.0858
-38.8211 -10.1577 179.919
208.383 126.802 128.168
207.124 129.894 119.061
-297.42 -11.2619 786.439
77.5479 31.9082 21.0822
85.1949 48.2886 26.5515
199.933 131.89 97.1028
194.492 136.27 75.4997
-323.661 110.26 1096.76
500.61 -26.9965 1124.65
169.666 81.7612 125.122
226.564 132.99 157.305
-107.325 79.9643 529.177
32.4342 131.62 301.111
195.571 155.773 37.6767
-518.543 -10.5373 1331.86
-2302.37 -9.07862 5591.14
483.489 -8.80139 1055.56
295.617 118.454 350.612
91.8355 47.1396 17.8851
122.749 93.7997 21.3374
85.6517 114.537 144.515
-279.661 103.236 998.515
-9.69911 172.481 491.146
187.717 95.8509 137.5
228.014 132.18 160.702
225.441 135.037 148.685
-101.691 394.909 1168.78
55.0325 -9.87268 31.5125
140.194 82.4699 49.0769
5.14292 129.138 373.568
-100.394 172.89 718.737
226.498 150.948 118.197
495.697 -8.69598 1096.91
9.31262 7.89628 117.655
1429.68 -206.73 3782.65
167.357 79.1356 120.568
256.71 149.673 193.762
243.884 140.449 181.053
2271.76 -9.31046 5482.35
813.893 -21.6391 1919.69
513.987 -11.4706 1160.46
90.1839 62.4206 40.1899
-968.38 475.054 3514.21
669.861 -86.8846 1707.55
792.397 -173.002 2199.41
506.347 -8.5155 1144.55
152.123 65.9372 107.55
196.953 105.612 136.22
241.294 141.499 171.629
254.571 148.201 190.726
859.783 -24.6448 2066.61
212.777 115.947 153.528
62.5734 4.97196 22.5035
110.655 74.5413 26.4993
617.836 -53.0874 1534.71
171.138 85.4813 111.981
169.329 84.4939 109.159
254.226 148.414 188.55
-149.85 -8.89058 503.063
-117.895 36.1724 517.942
112.667 74.0614 24.4427
174.735 87.9651 114.267
203.208 119.645 119.196
107.976 75.8553 34.2813
-248.124 416.752 1680.52
-43.5489 -9.83719 239.48
-52.4021 -8.51881 265.203
121.522 108.324 68.6954
202.067 138.24 74.3109
39.5287 -8.73156 46.6576
95.2538 31.8815 26.128
30.6635 41.9908 164.7
51.8375 110.211 258.455
223.801 127.301 153.244
166.12 91.3407 80.3611
615.166 -28.5472 1523.62
109.142 46.7759 27.1937
127.226 84.1639 17.2092
95.4328 95.2683 116.07
217.223 130.409 127.838
232.621 138 151.906
-1872.77 -7.26822 5121.3
-338.147 118.622 1322.26
116.979 65.187 13.4984
161.809 92.6009 63.4064
1252.29 -305.277 3864.17
587.773 -8.43432 1426.97
19.196 -7.18209 97.3467
142.339 79.7887 38.6998
173.36 106.434 62.3578
226.816 125.541 163.055
234.199 137.996 154.954
40.5471 56.4921 185.259
-1723.99 353.518 5624.64
163.096 92.6232 63.9031
231.607 137.326 148.932
168.049 107.616 43.0606
2.05516 181.453 575.566
629.192 -8.82037 1560.99
143.659 55.604 93.5569
162.837 71.8687 108.989
234.41 136.085 158.577
233.821 137.696 153.299
1616.39 -340.717 5026.19
234.918 155.627 115.151
592.468 -8.4608 1467.51
29.3436 8.46102 114.559
124.433 58.5821 31.4958
90.3248 68.2669 85.2299
193.389 96.9519 133.759
192.734 97.9712 129.578
206.387 109.332 141.316
208.337 122.261 116.835
246.594 145.199 170.22
-79.3117 11.6017 432.422
184.96 120.573 54.1588
1093.68 -145.723 3221.42
156.919 68.3765 96.0579
-548.223 -252.344 1143
723.256 -8.25046 1872.73
64.2584 -8.62219 19.8032
76.3987 6.59361 17.8683
-18.4601 9.33563 264.164
-28.8761 30.8304 344.316
152.865 67.6645 84.2226
103.297 83.2332 94.1526
175.163 123.395 16.0391
58.6556 209.881 521.266
247.764 142.892 177.18
214.875 120.052 136.71
149.95 86.0354 30.7104
205.499 127.682 91.2684
900.036 -44.5023 2498.08
153.627 67.3251 84.7713
50.759 -8.51981 45.9413
87.7857 20.8707 17.7009
156.636 82.7969 56.0744
211.257 123.416 116.889
-20.9147 28.1582 327.438
-31.4325 52.9789 417.334
72.2959 112.431 259.432
186.442 158.133 38.4375
219.985 137.255 108.221
-505.262 -9.56716 1651.5
118.89 31.5185 67.1964
76.0099 38.971 76.9756
137.966 108.658 64.1395
212.549 140.232 78.0652
167.63 171.685 129.863
163.315 81.5653 74.7399
-34.0804 51.0522 434.064
112.158 117.253 163.667
168.156 170.142 127.263
419.333 -4.3633 1039.75
136.049 45.7704 80.0158
171.493 96.5726 60.7753
235.634 144.587 133.654
-356.746 128.699 1588.88
186.143 108.208 74.7178
113.951 117.491 164.598
-2519.58 -0.978706 7756.91
46.7301 -6.5508 61.901
113.78 49.466 11.9819
241.925 139.825 162.85
74.8196 -8.6851 26.5074
74.7578 31.4831 74.0019
17706.9 -2937.4 60818.2
191.165 103.617 97.741
190.058 106.474 87.1217
-290.98 118.097 1420.98
151.02 57.5471 89.7621
126.905 63.7753 11.0599
0.0281067 190.793 716.749
150.146 56.3072 88.7678
149.689 58.5763 80.7671
204.692 115.25 107.009
200.477 119.883 81.8498
72.3047 -8.24063 17.5852
29.8644 10.6335 175.114
50.7525 25.3062 147.144
135.026 59.6503 27.8566
138.415 77.0968 12.4969
105.001 66.9128 87.8021
160.675 69.9449 81.8628
164.916 70.2312 94.1023
-45.5952 12.9963 438.202
208.571 132.624 69.6764
225.149 123.874 146.588
-37.632 11.3551 412.826
157.815 70.0295 69.0927
60.9025 23.7994 126.314
163.143 70.612 83.9494
70.7736 -7.78649 29.7622
3.31863 30.7034 339.221
90.8725 88.9431 206.335
120.171 101.957 144.293
223.851 122.425 144.437
224.849 124.224 142.863
97.2732 19.8832 17.1285
223.294 124.204 136.72
117.513 35.1009 23.3471
173.742 81.6973 84.6162
169.662 85.3778 60.3692
225.554 142.254 92.7605
103.44 35.7773 34.2271
223.836 65.9483 300.367
235.67 133.562 150.961
48.0152 -7.52428 103.062
-489.263 117.752 2328.02
63.7695 143.617 476.754
188.773 95.8892 93.0021
95.9144 37.2369 65.9375
124.427 50.1169 13.3537
33.1212 -7.17487 162.93
185.542 95.7689 79.6681
38.1194 -5.92149 152.096
106.097 52.2495 80.2198
89.4669 57.3657 154.939
-2051.38 -0.582987 7686.3
197.401 107.805 84.8748
207.672 104.781 130.243
235.936 131.317 154.971
38.5739 -7.96047 154.465
93.3089 55.1335 141.246
145.732 62.5687 27.1249
129.286 65.0973 41.4784
16.1579 -8.11968 240.569
205.151 102.142 126.914
208.912 121.543 82.5085
209.184 122.226 81.4608
6702.42 858.549 22026.8
84.886 -7.77808 13.8456
47.7325 9.21621 182.625
102.389 73.1605 171.552
171.351 72.0119 89.5177
-10.9652 -8.18423 355.826
100.082 72.4046 181.916
176.393 137.796 93.0346
219.062 116.854 132.232
27.6806 11.373 273.839
-51.116 -7.41308 517.471
105.678 6.68114 36.7868
143.097 81.0772 50.3748
204.903 123.704 55.2665
212.084 141.779 28.595
267.006 159.976 181.956
61.4986 27.8329 203.201
103.474 90.3556 236.036
218.989 135.046 73.0641
-1898.51 -219.817 7051.9
184.599 85.0381 95.0167
167.806 72.8402 67.3041
230.121 127.385 139.394
28.8864 30.5404 344.788
-33.0984 33.4655 598.059
136.463 35.0636 61.8242
181.593 84.5278 81.9437
105.32 114.106 318.297
-648.953 -51.0099 2804.79
-491.983 -5.76473 2322.46
111.004 21.2283 10.4203
121.823 36.182 10.9921
180.275 85.8694 70.6008
165.467 111.729 73.1794
-127.833 -7.73755 880.301
126.995 34.6663 18.1319
124.549 37.2273 8.11165
196.21 98.989 90.0092
115.618 36.1566 34.4667
-87.2367 65.7016 967.477
257.977 70.2883 438.881
73.2419 -7.4313 70.3462
152.789 48.7394 73.4014
195.969 97.9203 88.9764
208.098 110.371 98.0968
127.965 51.256 41.2291
289.708 177.667 215.695
130.46 52.9174 38.8972
206.491 -6.70043 491.134
151.395 46.7913 70.2866
-1.03824 76.7871 693.449
153.5 64.3179 17.0342
205.822 110.371 84.7624
207.46 112.013 86.1817
-92.7525 -99.3232 488.014
-1079.97 369.14 6444.37
63.7247 10.824 193.777
140.47 66.2104 52.5634
638.663 -57.9604 2615.81
213.604 107.765 125.402
42.5955 -7.59352 231.895
111.811 73.3008 210.861
166.638 60.5153 81.8
153.927 82.1561 55.0026
154.178 83.3268 58.1196
89.2126 198.536 774.094
225.532 120.191 133.011
110.194 7.01197 16.6448
15.1487 13.4402 453.191
180.347 75.091 86.67
124.378 22.9494 17.0843
154.264 80.7019 59.5376
-18.5518 -6.01992 555.797
112.741 7.22102 18.8864
124.052 21.8085 17.0973
144.42 83.8073 122.56
177.99 74.2131 75.2955
190.411 88.1586 81.8661
89.5987 -7.52826 44.5399
54.3248 30.3755 365.821
-84.1306 -7.2091 904.375
39.6023 52.0709 524.912
149.176 102.034 178.927
125.627 21.8293 17.133
192.592 87.9441 89.8986
91.5632 -6.8107 40.2059
174.604 69.8298 70.1086
188.998 88.3867 68.5163
137.088 36.0525 13.1424
135.25 38.5594 6.48883
238.519 106.612 247.017
153.445 51.0374 33.5807
202.388 100.112 86.139
128.47 37.7935 42.2439
205.362 101.072 96.3855
80.7819 -6.26951 113.19
-49.3976 -7.27428 808.453
150.424 50.3104 13.4306
152.12 52.2417 14.3586
202.052 101.528 73.907
-35.4693 -4.25213 759.732
174.134 136.514 227.075
166.584 65.3159 34.0907
147.969 51.7423 9.68487
214.25 114.318 83.031
77.106 -5.7495 159.31
158.96 66.1906 17.439
153.497 91.7255 161.71
167.784 65.6272 32.4789
61.5624 -7.38004 246.697
83.8991 11.2131 202.677
111.25 8.72749 38.5868
155.71 67.6969 49.8651
187.533 77.1771 90.4071
78.5277 -6.86856 162.733
70.7172 12.6156 298.96
122.428 7.31284 27.4366
65.8278 -6.60125 246.035
70.6744 12.063 304.742
186.716 75.8221 88.3455
187.117 77.6331 82.1491
88.8065 10.0099 192.714
65.5336 31.3988 435.939
135.408 22.6923 27.0143
95.3549 28.8058 249.483
292.595 172.73 270.283
209.921 68.8413 262.77
195.171 92.5703 59.0415
114.525 24.3346 115.088
19.7254 -6.20933 559.464
237.842 13.0354 712.565
200.709 91.2522 94.6441
96.7433 26.0143 242.256
96.2466 26.8792 249.732
98.6298 46.35 331.678
199.766 89.0934 97.9792
150.261 37.1797 40.2247
198.878 90.3826 85.1555
148 37.1124 27.6084
56.0252 -6.29651 350.895
152.018 38.1227 41.2789
148.651 36.9622 27.6186
127.576 60.4537 239.678
212.673 102.709 108.082
212.474 104.05 101.239
219.344 112.302 105.222
-618.639 52.1934 5289.52
164.883 53.2534 46.7437
271.261 -7.57352 1109.03
211.305 102.484 100.808
107.03 -5.69576 44.6778
161.562 51.6824 33.0662
103.564 -4.48376 76.302
177.585 67.6562 52.8673
199.887 92.8225 74.1364
61.4606 -55.9441 107.16
122.324 12.159 48.4328
148.565 29.744 44.3422
174.691 66.1597 37.9626
199.384 93.5878 64.6213
117.064 10.7632 90.2566
175.175 68.2213 25.8842
111.344 10.0955 137.434
170.35 67.4087 22.3925
155.905 72.5061 175.848
193.946 79.805 90.4733
102.954 -6.80065 112.775
113.972 11.3168 137.884
117.48 -5.74447 3.58347
131.061 26.4096 100.031
191.561 79.3844 73.3256
204.41 98.9927 60.3223
100.293 -5.76134 165.123
89.7633 -6.70941 252.484
193.809 78.6932 91.0033
185.433 82.4435 19.9001
67.0987 -5.15419 480.572
146.365 23.0764 39.7603
146.564 24.8717 30.4319
174.461 59.7336 45.6918
205.108 94.39 84.6928
134.025 24.6818 95.7038
82.6321 -6.54911 356.77
197.311 97.3418 27.4444
113.94 -13.3223 13.0058
160.24 40.1969 47.2726
115.987 -5.49573 58.6306
159.168 37.9235 46.3653
120.751 -6.50088 8.15575
161.167 38.6717 56.9867
173.173 55.2623 53.3747
89.9787 -6.47342 342.318
-1082.78 -559.638 8303.18
174.435 54.9759 64.872
121.156 -5.42799 25.2441
173.613 52.6675 71.0085
-20.6475 -170.361 202.1
118.647 -6.37432 51.8418
96.7589 -3.93535 320.706
172.033 54.1947 40.8036
187.874 69.0571 87.212
123.189 -5.0709 25.0656
185.64 68.1938 71.1874
177.691 72.6245 87.2105
122.665 -6.29062 27.4553
135.908 11.1606 29.1538
132.899 10.3752 59.6809
184.382 68.4529 48.6448
186.169 68.7234 62.928
133.349 9.49005 61.9735
121.77 12.4538 247.769
136.197 9.56063 32.6352
132.362 10.5256 96.3904
149.627 26.8226 37.0084
200.103 82.2637 102.349
199.076 83.8908 71.6121
147.711 26.0718 66.0091
148.626 27.4702 68.3246
117.353 -5.48259 176.068
140.44 26.07 191.728
-21.7401 -172.099 391.602
150.395 26.951 65.2272
118.829 -6.02934 177.443
142.556 25.7434 185.806
196.597 81.9692 35.4456
144.868 26.3922 170.801
168.179 41.2467 65.0509
-1.95526 -170.407 142.202
161.905 41.3946 80.8141
117.374 -5.2615 255.992
162.298 40.903 79.6787
162.051 42.685 129.191
198.352 78.0711 101.446
168.556 40.1486 64.3928
181.763 57.304 73.1806
-461.667 213.049 18851.8
180.45 57.6578 26.3531
180.878 54.987 80.8997
196.844 75.3274 94.0852
133.943 -4.77425 13.4423
135.799 -3.64482 24.3501
181.646 56.0023 62.7824
194.963 71.7652 97.9077
148.279 11.6949 28.4901
147.168 10.7987 17.8869
203.949 67.8257 610.522
147.342 10.3013 16.3965
148.273 12.0671 36.8421
147.085 10.5617 40.56
161.391 27.9285 33.2594
160.7 26.432 33.0233
161.809 28.1824 18.3614
136.44 -4.7847 59.7179
160.499 26.9131 45.7043
174.742 43.5437 75.9808
232.67 120.126 141.982
241.929 132.339 155.241
11.5608 -172.514 249.671
173.873 42.3052 23.4444
175.657 43.9233 77.2523
140.039 -4.70447 28.8787
175.53 42.5428 23.882
242.94 133.271 155.701
140.841 -4.42409 126.341
188.733 59.5216 24.584
188.252 58.241 84.9804
142.513 -3.0795 35.703
142.99 -4.48782 175.467
188.486 56.4252 61.9133
155.655 12.9648 50.0073
156.405 13.4087 49.8028
124.498 -37.8371 226.012
187.08 54.5782 82.5515
240.956 122.137 80.2102
156.21 11.4504 48.418
157.78 12.9472 36.0819
161.207 11.4736 131.888
244.74 135.049 174.974
151.759 -4.90017 154.351
270.594 15.7233 2674.76
-31.8625 -209.724 614.598
169.777 28.1392 54.6605
171.313 29.4039 42.1776
173.982 27.4401 99.0153
182.415 45.7553 78.3322
183.944 47.448 79.6608
183.632 44.8838 48.3468
183.751 -5.00285 716.676
252.139 145.459 192.441
162.613 13.1588 48.8287
150.556 -3.57151 46.109
157.184 -2.61444 144.557
162.674 13.5676 30.5781
152.35 -3.56401 67.1847
165.15 13.0136 76.6755
165.258 14.6529 50.7078
155.001 -3.67238 99.7864
167.907 11.9384 120.631
153.415 -3.80855 68.9356
214.138 9.12116 820.919
177.164 31.2969 39.4114
159.345 -3.87107 142.976
174.324 30.2882 77.0206
159.968 -3.48103 137.724
160.146 -3.64613 142.7
129.305 33.2961 772.221
157.603 -3.56095 101.639
31.3877 -1.00058 1771.25
158.396 -3.53485 104.096
163.108 -2.15558 137.325
174.654 20.3622 67.5284
180.622 -3.3058 312.479
170.152 -4.94238 205.255
54.5511 -1.82882 1188.59
174.604 14.8704 83.3006
179.098 15.7568 118.752
215.756 -5.02386 614.765
167.695 14.4579 75.2991
157.739 -4.15597 44.6956
10.0478 -126.512 594.047
158.824 -4.13589 46.6644
157.855 -3.42159 60.9583
161.513 -4.03722 65.064
205.661 62.8843 80.4631
262.625 162.094 243.577
166.747 6.67598 58.3438
255.545 150.726 233.395
158.533 -4.50887 63.5276
165.054 3.07252 56.237
55.8288 -183.157 220.506
166.221 -4.14216 89.1204
166.12 -4.96329 89.424
155.797 -2.635 109.015
231.964 112.566 198.539
172.406 4.44211 87.7437
226.125 34.0116 298.036
223.038 95.3906 170.62
251.445 143.632 236.894
191.244 30.8767 87.0068
224.123 92.1711 155.907
265.522 170.015 294.676
181.444 28.6554 125.254
203.857 50.8802 88.2781
209.178 60.7271 106.58
254.825 153.062 283.008
199.731 41.0286 86.8691
228.557 90.6157 144.374
63.9415 -174.361 182.007
260.505 179.272 395.821
289.512 162.738 104.815
193.763 27.8319 106.817
263.13 -2.10129 576.676
221.718 92.7857 212.092
225.604 90.7444 183.51
281.18 55.1067 546.222
219.026 87.561 206.7
220.019 88.8594 207.083
227.49 93.6627 186.185
224.398 96.0587 211.565
213.651 74.5636 189.112
217.059 82.7502 201.94
218.58 82.631 195.437
225.498 88.1488 180.763
223.328 90.8596 200.997
227.888 96.9511 199.127
212.105 69.7331 184.885
216.104 76.6998 189.809
218.492 77.4675 181.158
-651.438 401.391 5789.89
221.611 83.7011 187.243
224.194 84.4328 177.946
212.418 64.3917 169.13
227.485 90.6418 183.084
226.681 92.8797 194.442
218.222 69.8703 162.769
257.669 57.5901 301.23
287.523 46.8272 473.543
287.187 71.0072 383.945
221.414 77.754 180.218
270.575 59.7602 313.668
242.998 68.92 154.833
223.345 85.9637 199.91
224.135 87.3835 200.3
211.966 57.1527 172.23
342.269 23.9064 681.882
229.829 94.9527 200.625
216.967 65.5912 178.406
228.157 93.7566 204.434
234.57 100.983 199.048
220.067 71.7475 183.007
236.004 67.6736 123.745
209.019 52.3537 176.788
316.707 42.2961 488.269
226.862 80.036 181.774
191.38 11.3133 150.873
218.215 57.3592 163.779
214.845 59.6384 181.514
230.215 86.5556 188.588
267.542 43.2169 273.055
233.667 94.7255 195.28
232.172 97.3995 204.671
222.431 73.7999 189.349
226.167 74.1851 180.133
235.593 103.843 208.053
211.149 44.6355 170.972
343.85 46.2053 492.108
218.056 50.8194 164.182
215.145 53.1236 176.003
218.122 50.6985 164.118
335.415 41.4971 467.454
221.008 58.6491 170.551
222.151 59.995 172.368
262.347 76.7685 132.247
295.572 67.1952 256.829
235.43 99.8813 204.381
258.641 29.1787 228.965
302.79 39.7867 338.171
223.886 68.4888 185.205
358.696 39.552 500.329
216.38 46.2976 171.688
237.13 71.1655 162.691
251.312 67.043 126.518
271.68 38.5271 231.256
269.962 66.4609 163.857
76.2797 153.257 620.269
385.412 7.72523 625.14
299.249 -22.6507 431.432
315.416 53.0642 312.79
391.326 17.1489 599.583
225.135 59.6827 179.155
282.316 19.178 278.079
302.577 36.5404 286.188
89.5716 179.464 570.787
235.96 103.831 212.572
266.961 94.7985 145.262
248.299 61.0093 141.784
293.968 22.1857 288.261
111.049 62.1197 391.885
259.064 58.6068 123.377
301.47 42.0625 258.607
1370.68 -379.778 3770.49
262.482 98.7212 161.648
430.507 -3.10507 667.285
247.692 39.1678 128.641
329.647 19.9021 358.808
356.988 31.0961 399.359
287.684 14.1831 261.806
317.568 27.1292 309.535
264.571 71.5493 136.012
236.021 51.4173 164.96
268.041 70.907 134.427
287.381 71.0131 147.382
300.949 16.5961 275.185
256.566 84.7917 165.825
379.26 3.17036 475.198
520.565 -33.4301 864.14
735.228 -105.289 1483.91
241.376 93.4894 196.946
264.981 92.285 163.266
546.625 -26.7163 885.415
110.686 64.7387 362.84
277.095 53.0298 141.41
309.205 42.2436 229.586
256.268 96.0927 181.08
523.552 -26.1749 805.789
105.018 199.251 479.022
253.142 70.8823 166.205
267.23 100.317 169.996
390.245 4.93151 460.3
244.015 43.3856 157.619
371.568 35.7566 366.872
288.616 9.16495 232.251
246.998 61.9393 169.306
370.542 25.5466 373.962
427.262 -0.665833 536.333
242.744 22.1832 145.911
259.264 47.1095 144.174
401.159 -2.41874 473.082
-360.46 367.223 1693.69
289.612 43.6293 163.953
161.934 137.622 328.601
183.21 129.199 296.029
-113.841 156.549 205.641
514.249 -32.8614 718.817
-867.744 231.044 1153.48
-240.056 186.85 389.925
175.978 146.038 134.066
164.072 155.875 109.265
-39.1778 154.548 127.861
15.5349 156.153 65.6329
-16.1971 171.483 122.4
159.763 156.687 101.235
-645.345 86.6901 775.533
-216.279 137.134 325.763
-214.953 141.692 330.467
-74.0575 158.628 183.18
-235.264 168.951 390.033
-127.448 185.012 279.802
-34.1253 156.729 135.907
119.507 132.182 76.5756
198.332 147.943 153.602
-1163.98 119.902 1487.33
-1504.28 221.555 2032.67
-82.8759 166.693 215.785
133.729 128.737 94.6463
208.946 142.87 171.391
27.4952 146.239 61.9176
-730.452 134.193 1009.82
-26.9379 147.298 135.153
10.2864 161.06 104.27
108.411 157.696 23.8513
71.794 109.271 34.1186
128.863 164.428 40.6537
-365.892 45.8151 454.226
-231.139 94.4328 340.704
-193.742 93.0971 292.118
-651.699 271.121 1098.53
-37.2632 132.486 139.173
116.839 112.802 83.6657
125.134 147.558 52.1796
-91.1436 170.651 260.427
52.2323 164.295 64.6462
183.607 132.812 145.886
181.751 136.549 138.674
301.963 37.4873 418.33
-2477.45 551.172 3899.18
7.56989 118.581 73.4315
21.3437 121.986 59.9572
94.8291 138.667 17.7403
-229.954 124.918 400.826
-13.7563 134.45 124.673
207.501 133.861 173.924
73.3816 99.9595 34.7948
102.769 138.668 26.1043
91.2972 149.142 6.05365
186.134 149.489 124.976
-199.069 25.3694 243.148
-202.593 26.872 251.09
69.3203 107.028 18.4645
36.8236 165.037 98.8158
59.306 166.315 69.7959
-137.679 42.2669 183.695
-40.6239 84.7204 104.612
-1457.94 430.308 2477.79
118.829 125.899 60.1056
108.549 131.179 38.7658
168.255 117.965 137.573
195.924 141.938 145.348
52.7465 84.3684 19.1693
-32.4912 135.959 165.651
213.061 145.948 163.414
91.7534 96.1348 57.1139
136.161 117.007 92.4661
70.7925 151.152 43.0868
79.8378 153.565 33.5187
-127.853 43.2876 184.266
48.709 82.3425 12.9551
-226.381 194.024 521.265
131.715 114.875 87.1335
150.066 124.484 100.656
152.009 125.945 101.512
202.16 154.046 136.076
-4441.83 592.055 7039.39
69.1074 107.046 11.7166
168.954 133.492 114.8
-196.405 73.9337 330.634
-832.005 360.048 1614.73
100.033 132.274 16.0117
66.6966 71.8318 46.6196
70.1943 80.498 40.2388
75.5201 83.4902 43.4555
29.2878 124.032 77.0771
97.081 140.29 10.9063
111.628 143.008 16.4847
133.838 151.894 36.4517
37.8942 76.7132 22.2063
41.9585 79.8642 21.0008
-344.067 172.799 690.565
53.7988 91.2178 19.679
88.9064 102.778 34.2162
-66.9787 185.488 305.535
-56.1476 188.879 294.157
46.0346 154.595 99.0262
97.9304 166.793 39.6343
122.199 177.019 17.5145
-65.495 72.9758 156.706
32.5637 98.0158 45.0226
104.099 80.8092 83.8531
9.01027 107.556 93.7547
108.69 87.6482 81.0017
-823.826 381.411 1708.34
-275.868 266.606 735.237
230.482 138.516 193.647
-125.702 6.60771 161.883
-190.27 96.2793 382.825
98.0858 88.6239 61.478
-50.6454 135.795 227.805
-13.4085 140.762 179.541
13.8371 158.195 163.317
149.145 113.369 103.658
123.668 155.645 9.29867
-1941.44 479.431 3591.21
-93.2562 161.253 334.252
122.031 110.776 64.5363
-57.4546 196.266 329.544
147.388 116.711 94.8324
192.692 133.801 140.823
184.941 157.492 95.9445
42.8111 87.331 35.0292
121.803 86.3779 96.422
71.0628 103.901 24.0321
-318.021 227.641 782.991
-365.092 299.425 956.351
160.949 101.271 136.002
121.923 117.397 52.7003
140.545 128.11 66.6405
2268.12 -370.584 4076.63
78.1482 66.183 55.4646
54.0874 88.9355 29.8939
29.1063 110.08 82.8303
111.43 98.9485 60.8149
83.0682 129.685 29.556
208.143 126.566 173.18
-84.8094 0.332482 109.103
-41.8174 21.3212 71.2068
81.1948 93.9757 19.4016
127.336 109.707 69.6851
127.616 110.547 68.4421
179.46 128.848 124.246
204.26 142.565 143.904
218.102 136.45 174.267
-204.554 0.633232 301.929
-73.7907 114.263 256.578
-143.552 134.62 395.981
100.063 87.0396 56.8289
107.379 90.9589 62.8582
106.686 94.8938 56.144
97.5509 100.601 33.493
65.2454 114.527 37.6825
39.6447 124.576 92.6782
29.2167 143.681 136.496
3146.99 -40.3349 5080.48
7860.5 -417.792 13110
29.639 73.262 43.3542
-46.7422 165.518 290.502
128.05 106.281 72.469
200.412 146.703 130.214
2660.71 -28.6959 4319.66
1503.56 -68.5956 2524.8
58.0518 84.9801 29.6213
78.5937 82.8564 25.2176
116.954 129.085 20.2886
2343.65 -191.892 4073.28
-774.432 338.038 1718.96
132.788 81.6056 113.598
139.529 89.4145 113.192
63.1642 115.631 48.2992
64.1452 119.12 51.765
113.381 127.317 16.005
43.0397 161.265 146.94
230.845 140.764 186.439
229.653 142.923 181.368
-474.018 -5.34009 746.24
-41.7363 104.812 204.285
5703.95 -1438.06 11368.1
56.6097 99.2423 40.3347
76.7917 106.293 28.7267
86.803 119.635 28.0042
178.722 109.144 146.928
178.065 119.482 130.749
-249.849 54.2382 474.245
-314.297 63.4011 593.07
2.16371 50.6918 58.0532
3.63737 96.7853 122.941
147.056 95.6479 113.764
198.735 123.783 157.519
-209.905 -9.16907 320.722
-1.04625 94.173 128.507
50.7711 106.85 61.755
112.097 93.4562 58.4433
110.935 97.5718 50.4504
115.533 99.8572 54.6822
103.784 112.155 17.1131
131.996 119.664 52.6921
135.058 122.293 53.877
-196.365 72.8254 421.921
987.188 -81.5493 1764.33
253.522 42.5113 367.249
122.451 83.3923 89.5607
132.06 92.8771 91.4776
133.903 100.375 83.4404
147.345 131.384 59.8676
171.589 135.797 93.5911
-104.739 108.325 325.192
1543.87 -265.653 2967.57
100.326 85.3025 48.9819
78.5694 99.2611 26.7703
141.575 102.9 91.1615
-556.712 -14.5237 903.188
-54.1337 140.226 292.442
14.9146 146.167 185.707
88.6782 50.4092 79.5198
43.1818 60.8765 34.811
110.016 95.1914 48.4342
181.904 131.848 114.469
195.43 139.137 126.306
752.765 -16.2445 1295.73
-515.606 20.6081 896.632
15.1049 165.933 218.897
172.016 156.033 60.7898
14014.8 -2662.17 27667.8
131.203 78.6548 107.191
141.211 101.456 89.8304
140.489 106.767 80.6132
122.883 116.413 36.2544
220.977 140.741 165.884
33.6311 103.395 95.8973
-57.9979 141.585 308.794
158.606 90.7249 134.799
130.465 101.449 70.709
-308.323 270.136 930.838
166.78 95.775 140.789
166.051 97.7466 136.556
96.6313 58.8033 76.5994
74.9438 66.2554 28.2414
109.658 85.6377 58.1892
144.921 102.933 92.2372
144.539 108.582 83.0225
149.347 110.832 87.8289
150.271 121.739 72.8773
201.106 152.425 113.241
194.787 159.637 91.5121
10.5067 16.8349 39.0059
-28.7818 22.1741 83.8646
104.971 87.6884 46.0284
150.929 106.832 95.7824
154.354 110.017 96.8152
157.036 111.649 98.9362
40.5814 69.663 43.5785
50.6768 96.9434 61.69
43.0559 100.629 80.3839
41.8667 102.605 85.4324
171.33 109.9 125.437
106.317 80.8796 57.2896
144.432 99.4472 94.663
148.537 106.081 91.6121
154.853 109.507 97.2716
158.891 113.777 97.7152
163.331 115.979 102.008
174.308 127.028 104.066
217.533 142.238 155.378
223.717 154.246 147.705
-1187.14 440.607 2724.34
156.551 91.9015 126.378
155.383 94.4667 120.424
161.839 98.5866 125.291
157.894 103.18 111.421
160.533 106.142 111.452
136.87 117.664 52.8196
132.828 120.315 41.7583
133.523 122.01 40.3656
26.7344 108.322 124.084
2366.24 -555.474 4947.12
-2732.08 1186.69 6557.34
132.611 114.347 49.521
193.656 117.505 150.585
25.9906 33.6456 37.0968
50.2242 66.7505 35.8678
136.63 103.135 72.8301
139.399 106.777 72.0451
175.951 123.51 110.061
108.431 106.658 17.7264
121.078 111.558 32.2617
109 121.74 17.8583
91.7768 133.97 53.5432
167.36 108.23 117.909
167.448 109.086 116.739
189.154 119.539 138.621
-112.72 -9.61946 191.394
66.147 73.7968 26.5475
131.123 101.483 64.4081
124.013 109.309 39.803
151.021 102.954 96.5975
140.985 107.715 71.5182
145.65 112.947 71.6047
175.184 125.502 104.115
7.84544 94.2313 142.566
-67.4056 114.017 305.964
44.5422 129.336 132.472
6.85447 148.26 228.323
149.267 101.189 95.4168
199.797 127.108 144.38
199.395 130.048 139.082
-413.003 -11.3872 724.588
-44.1037 92.8117 234.184
143.095 96.9246 90.2874
217.66 133.487 165.536
216.046 135.853 158.964
-186.124 11.2651 361.238
148.907 116.361 69.7962
-382.624 141.168 914.997
82.7337 70.1728 23.3054
135.911 95.4083 78.5917
138.641 101.368 74.0979
201.828 127.47 145.896
115.724 95.7587 41.5831
108.703 114.008 15.0363
208.26 138.207 140.161
-444.413 14.7188 832.686
-71.6163 111.998 319.283
37.1441 125.875 146.686
75.4243 148.703 114.167
214.923 152.734 128.873
31.9389 4.00288 34.5343
153.741 86.2989 123.286
145.113 97.1621 90.6409
136.074 102.235 66.4
96.6747 118.547 30.1
-42.2392 177.695 372.924
174.736 98.7973 140.957
166.066 107.608 111.372
218.458 133.483 164.814
131.615 99.3999 61.8811
231.402 139.659 178.036
233.287 140.585 179.969
82.3727 85.0333 20.4397
