238.986 119.94 204.26
211.074 100.466 152.967
249.381 141.037 238.116
209.097 91.2643 117.495
205.159 91.7347 93.5476
647.134 454.995 1177.41
176.707 94.323 87.8235
205.384 98.976 127.935
139.576 47.9783 -20.2986
157.503 56.3524 34.678
177.087 69.2635 69.7439
157.495 46.3772 6.9892
209.323 85.9596 90.3137
198.924 103.96 89.305
225.349 113.691 182.382
198.501 102.598 86.5431
197.776 103.738 119.075
187.61 81.5651 114.56
176.17 47.1897 64.6882
194.579 96.4786 108.875
-214.927 -301.534 -922.105
191.475 88.6323 121.344
331.183 202.655 439.593
197.477 101.379 96.448
170.045 72.462 64.4088
154.252 55.1434 71.3925
209.989 81.5138 141.904
152.723 39.4411 22.674
275.628 155.734 308.418
211.468 94.6171 154.385
32784.3 22979.8 61797.5
6290.91 6244.53 14772.1
176 66.5348 77.1471
138.459 37.5019 30.1185
189.794 72.0123 88.8509
149.152 75.3447 40.8729
191.409 86.9874 137.097
210.474 73.3236 131.934
237.042 125.965 222.289
310.456 186.34 379.555
200.112 82.4701 134.038
75.0634 21.5718 -56.5672
274.347 154.2 298.327
1028.3 717.948 1901.99
456.104 303.584 717.941
277.138 157.625 312.473
203.355 94.8989 73.5572
201.798 79.1482 108.806
167.635 49.9205 69.7168
201.634 83.0826 136.15
180.993 83.8469 107.638
348.563 237.352 496.661
78.1741 -58.2538 -147.712
206.75 88.6004 121.909
310.799 182.562 391.039
167.994 89.1934 70.7513
206.549 91.3987 138.43
208.977 90.8667 74.8317
131.598 14.768 -78.4461
190.827 57.9172 89.3216
176.113 71.1292 97.2467
-933.987 -1082.02 -2343.08
257.27 145.464 269.266
202.72 70.5004 85.5518
-464.46 -678.529 -1551.02
105.262 -87.3562 -265.406
154.203 42.7604 -0.15292
333.438 201.931 442.766
248.763 135.682 245.544
306.457 181.288 386.388
286.797 165.081 334.059
205.562 91.2323 127.984
145.201 64.7929 43.6916
277.335 159.383 303.156
287.318 166.042 329.894
235.712 136.117 195.518
250.572 132.384 245.556
149.441 68.8985 3.06702
236.203 126.135 196.119
238.577 124.359 214.119
122.958 67.505 -1.53696
178.654 89.9666 102.533
293.345 171.893 350.257
191.771 64.2315 68.4226
146.032 53.1593 -6.72423
200.432 112.874 91.305
399.69 242.859 614.172
40.0899 -18.0982 -387.455
302.076 180.086 369.52
260.395 141.172 259.339
74.2238 -42.3925 -176.563
196.02 85.3966 102.427
204.317 93.0026 147.144
180.61 93.5948 114.593
205.523 101.993 126.597
196.96 79.5684 70.5979
174.808 84.2513 85.7842
172.314 82.7218 79.8025
117.384 19.1112 -110.915
248.707 136.123 241.289
235.968 114.712 180.805
203.994 93.825 113.021
265.663 140.198 272.722
211.061 93.064 142.224
209.613 110.953 117.078
-1.43111 -165.05 -567.567
182.598 83.2714 68.2539
213.784 104.321 119.974
195.288 105.68 112.017
169.271 70.6366 72.6836
168.196 68.3629 69.5051
5791.67 5298.41 12824
168.938 69.9802 73.0977
294.2 173.66 349.684
235.739 121.807 217.025
75.1917 -61.0039 -223.775
176.369 67.9767 66.1234
232.512 114.933 193.124
233.193 119.888 189.347
195.133 86.4489 63.4091
207.117 109.52 111.729
200.155 94.6579 114.484
206.213 105.351 156.944
212.952 143.654 114.752
196.654 77.8724 134.496
205.565 104.483 106.592
262.936 144.817 259.077
185.741 117.288 88.7678
188.835 114.549 96.1878
80.5313 -2.45317 -235.153
591.536 444.314 1211.4
198.517 119.424 119.091
265.573 145.915 282.141
270.146 152.45 285.277
191.671 109.501 112.906
320.876 189.808 423.553
283.505 162.251 321.586
251.507 130.447 231.132
2585.05 2194.21 6279.46
257.749 128.556 236.756
210.563 75.5286 108.949
213.667 147.656 116.78
25.9066 -66.3569 -296.433
202.114 121.387 108.064
267.286 143.012 278.311
530.474 364.71 962.808
181.729 45.2377 -10.4978
84.4997 -9.62238 -227.166
210.029 121.086 107.733
170.055 70.6233 7.74958
246.432 127.02 225.466
288.927 166.966 339.843
229.02 114.909 169.07
269 152.377 290.173
213.784 100.312 92.0413
224.818 125.237 149.17
341.597 223.902 517.6
194.989 85.353 89.2809
205.309 90.8887 127.218
-497.413 -566.847 -1374.44
192.064 88.6649 69.769
217.82 161.746 162.153
215.777 97.5819 82.7045
216.706 152.214 126.383
236.834 164.703 204.488
230.864 127.259 175.491
191.394 167.436 80.0042
210.709 148.692 159.216
231.447 131.658 214.78
200.458 149.068 92.9572
202.033 154.469 109.003
187.733 114.754 76.1268
206.981 135.839 141.209
225.623 134.863 119.062
224.366 154.544 159.584
142.853 181.633 -32.8662
209.872 140.356 129.786
188.559 157.025 59.313
187.15 127.384 120.941
195.555 94.3777 90.4567
201.005 107.451 105.37
249.378 122.621 225.118
206.279 144.808 129.543
204.131 149.12 132.261
229.598 128.935 155.526
228.247 126.901 186.056
212.739 147.6 127.677
232.368 167.885 206.256
186.617 129.729 147.993
197.587 106.398 84.1355
215.68 143.008 124.64
201.314 150.793 116.102
232.172 124.124 187.577
248.096 147.338 216.157
234.031 123.13 200.061
263.41 144.193 276.539
191.957 97.7492 113.638
464.158 164.636 880.997
210.315 87.4507 94.5083
223.04 128.355 153.979
181.873 121.066 108.656
211.305 147.553 121.375
223.233 131.579 186.217
223.867 131.001 147.412
216.316 148.797 126.857
240.535 129.229 234.853
206.315 155.347 107.96
194.189 128.766 101.292
206.879 135.863 129.474
157.439 178.575 34.4182
154.093 161.177 11.4956
219.238 140.967 136.074
207.77 116.179 87.3322
195.688 150.715 112.499
287.966 166.884 336.429
163.573 161.146 -8.70607
184.989 54.2048 108.497
175.334 86.746 63.7784
137.234 36.9163 1.37596
242.4 131.275 223.9
385.593 228.077 559.041
193.537 105.73 98.6203
191.715 90.4118 102.043
235.648 127.371 221.338
196.107 92.146 140.075
-163.742 -102.172 -794.114
183.122 55.037 81.4857
257.904 138.716 249.346
255.693 140.792 254.542
192.291 97.3567 125.667
230.208 115.096 194.286
190.587 95.7615 119.423
195.024 91.6167 120.638
187.979 92.4637 95.724
240.01 130.283 212.715
202.586 96.5177 131.949
160.921 48.6945 15.0509
113.566 53.4712 -105.592
361.634 244.067 526.701
180.576 90.6346 77.8475
235.875 120.923 202.777
83.6846 24.7804 -116.175
275.244 155.738 305.423
-91.9908 -171.524 -634.282
117.403 -70.5932 -220.661
190.284 92.6489 98.9695
-572.86 -415.119 -1413.97
253.134 127.247 240.216
362.428 245.481 506.836
234.504 114.963 190.096
258.016 138.422 250.41
241.548 117.958 203.634
244.738 127.867 218.801
292.772 170.69 351.46
180.435 81.9737 64.3118
247.154 138.356 242.181
195.462 84.0203 121.183
279.716 160.225 311.995
280.435 161.004 313.836
134.226 45.3956 33.9804
178.119 89.4539 101.182
199.279 97.1504 111.482
198.759 92.2165 112.614
293.976 171.226 348.854
185.318 62.6073 65.1624
235.34 115.401 206.29
160.16 27.9415 -21.8116
177.952 81.3726 123.9
274.147 154.363 294.941
4001.6 3919.98 8392.06
211.887 94.5639 153.986
277.304 156.949 303.702
238.676 123.458 227.078
241.353 137.886 220.948
253.828 135.597 256.187
165.256 55.8657 83.6424
201.164 87.8067 96.5538
271.091 153.202 299.029
178.317 102.068 101.514
197.031 110.147 115.355
170.925 72.4003 65.1307
186.601 96.6729 110.332
233.932 129.857 209.826
172.025 103.502 88.4882
201.389 98.4143 126.405
237.757 131.282 223.597
184.004 97.9972 114.534
245.816 135.661 245.922
241.25 113.553 208.472
200.737 93.6397 134.939
210.057 99.2435 150.856
188.459 81.0252 131.552
284.466 163.171 323.586
283.931 162.593 324.739
625.305 429.382 1071.33
209.866 87.8825 129.697
190.347 90.7796 127.447
96.1664 44.3248 -169.866
184.449 85.7353 61.8357
239.497 127.361 220.865
199.787 81.235 112.871
279.545 158.564 323.062
271.084 153.555 296.458
347.234 230.096 493.917
188.916 70.8465 96.4844
175.262 45.2294 49.7315
143.634 56.3431 18.1065
206.999 80.33 86.0245
176.212 57.9941 40.2577
202.745 101.969 98.449
205.26 97.5361 136.672
204.814 89.9298 103.608
170.378 87.5591 95.0426
200.014 81.8995 102.923
210.511 82.4486 80.4039
174.268 75.3946 73.4914
189.528 78.3913 125.291
189.643 75.2513 60.6305
185.183 96.276 107.317
191.243 91.8613 18.5043
202.045 103.595 119.308
150.616 51.0041 73.431
184.633 95.1378 104.953
241.649 126.262 210.689
224.444 119.01 164.382
170.809 71.5304 11.4833
266.545 142.922 277.71
199.647 91.9021 63.6161
126.061 11.5006 -136.058
207.745 86.5589 151.93
344.244 207.761 458.097
210.569 74.9372 95.527
461.335 254.366 766.035
205.028 72.7469 92.6631
247.474 141.143 254.99
234.815 126.185 178.298
294.457 171.875 347.129
133.029 15.8438 -146.086
199.185 81.5994 89.7977
227.374 126.757 155.578
244.898 122.998 209.132
210.212 88.1044 95.9104
205.633 87.1248 94.0993
197.472 64.108 55.2085
249.971 138.454 216.958
212.723 54.2682 89.4498
209.834 76.644 78.7752
215.655 91.3783 157.68
209.835 91.1968 92.3641
257.666 142.927 274.083
533.226 391.454 951.94
202.909 143.735 120.078
236.835 118.642 209.122
234.291 129.067 176.043
205.506 98.9092 104.587
141.278 38.8614 -30.608
196.256 132.327 140.55
228.463 115.234 194.775
201.985 162.808 82.2589
241.637 133.592 218.985
367.163 243.643 509.929
-13.1726 -50.9788 -375.081
188.197 56.0455 74.2606
211.516 152.074 161.33
201.064 131.986 92.4618
200.502 105.978 79.2751
179.881 64.9439 113.382
210.169 136.077 140.123
188.65 64.6638 27.0599
196.105 73.4852 93.4556
462.029 324.485 867.382
-1581.32 -1905.75 -4103.72
215.585 107.406 84.2195
203.08 117.714 111.707
209.032 144.962 127.559
201.183 90.5436 105.632
223.014 162.398 183.19
200.525 113.62 92.6277
194.884 90.2277 151.566
238.348 114.71 194.213
207.357 130.153 110.46
247.775 127.531 228.306
210.414 140.097 130.071
220.507 140.476 140.392
194.69 121.626 87.6464
237.345 132.832 193.098
175.792 95.7473 77.3814
162.922 93.6849 70.1465
232.263 127.21 164.477
232.036 121.766 178.29
172.37 60.8815 32.6637
231.663 124.257 187.22
244.552 117.257 222.604
215.818 138.451 122.858
195.056 151.363 137.043
6.51281 189.364 -263.78
179.404 45.7612 47.8743
216.304 148.797 127.057
157.681 46.1696 -8.80124
245.792 132.329 240.177
-327.07 -259.92 -969.584
301.584 176.508 360.482
205.696 88.3652 120.551
437.403 344.543 821.67
149.775 70.7896 43.0192
280.222 161.831 317.857
-313.651 -237.428 -1037.73
187.082 89.464 54.8661
174.224 76.2183 74.7525
347.208 213.662 464.369
181.21 91.2292 117.141
109.781 52.8482 -29.0323
148.501 65.6422 60.1717
176.689 70.5157 87.4875
120.907 -14.044 -88.6125
370.8 225.505 498.214
254.481 143.661 244.347
195.45 75.8387 90.0964
263.269 137.135 266.176
253.009 134.722 226.408
-1113.85 -1046.25 -2502.54
164.993 70.0906 41.5422
252.634 126.74 238.886
253.727 140.183 253.074
209.33 86.4988 78.3354
192.531 73.9483 70.2021
202.912 90.7025 146.437
328.56 209.4 433.635
249.202 143.451 254.836
338.77 205.98 476.358
274.427 155.132 301.316
-127.709 -192.994 -506.373
210.857 96.3039 142.512
208.853 86.5543 136.651
179.661 92.8428 112.623
154.755 51.9147 -53.0441
249.336 134.501 226.453
120.934 19.0284 -85.2105
613.448 385.264 1187.87
203.816 106.392 100.942
140.679 23.5802 -71.7884
203.978 89.6045 134.284
422.145 267.215 576.496
259.266 140.955 270.067
208.227 62.5261 99.9994
206.09 75.888 120.217
279.841 159.692 317.638
251.778 135.573 245.255
201.128 107.83 104.575
124.718 23.6947 -71.9433
182.924 73.1272 68.4505
195.877 102.886 114.466
205.594 95.1648 117.172
177.967 89.3513 100.699
195.635 92.8176 112.233
208.777 114.454 116.945
209.429 74.2549 104.768
175.75 58.1695 53.9962
194.234 105.751 97.9184
9872.33 6045.02 23123.4
283.379 163.228 321.836
169.826 78.6327 84.5177
188.359 48.4596 43.8387
199.256 46.5121 26.7196
172.859 1.14112 -39.7074
237.277 115.655 197.354
272.123 151.187 296.483
169.572 85.703 22.9179
252.657 128.727 235.149
210.193 100.185 94.4907
45.3342 -19.8723 -302.556
178.094 77.7565 11.293
71.3548 -30.6719 -109.043
205.624 90.834 106.159
178.62 20.5957 17.001
79.2571 -34.8415 -140.257
277.599 155.412 304.962
192.426 79.0531 106.669
173.983 64.7284 70.9078
165.55 75.4775 84.8655
181.386 70.2847 5.32985
171.122 68.8152 24.5399
259.842 147.831 266.116
187.768 81.5688 116.202
190.222 100.39 77.3528
235.671 116.594 211.333
140.768 38.2855 21.2713
177.414 89.2325 101.692
108.958 56.2553 -97.8466
196.461 78.0456 66.724
233.367 128.68 195.477
1082.82 1067.14 2415.69
404.983 292.278 677.425
237.452 111.607 198.52
-40.6429 169.762 -508.348
208.792 74.3757 125.425
194.324 148.583 141.521
228.375 115.622 194.497
179.307 89.0593 73.5454
267.144 168.075 275.383
202.9 89.153 101.182
182.979 67.4569 111.882
157.153 58.0792 -9.19576
191.136 95.2174 130.643
204.424 93.1992 144.231
203.18 96.1123 141.014
171.854 46.9743 28.096
228.352 122.023 182.04
213.791 146.931 130.505
201.875 107.702 146.508
201.786 76.8508 130.153
228.898 131.941 202.823
215.043 93.0612 97.8216
243.922 119.609 188.703
197.743 74.0255 85.1536
198.762 36.0161 39.3347
196.057 74.1286 116.364
192.982 141.06 154.371
210.564 82.2288 94.4752
330.857 204.669 425.005
713.664 562.616 1392.62
186.826 40.8345 39.0853
166.588 42.3439 -20.5689
-151.433 -115.915 -625.108
260.551 144.411 266.753
274.491 151.13 291.731
229.009 125.963 179.382
202.757 141.611 98.4812
197.936 83.0201 119.147
242.59 126.869 203.222
208.471 119.244 115.602
199.553 151.265 138.014
205.079 120.61 105.324
202.469 152.671 160.884
203.024 162.044 99.5862
194.261 157.546 98.2061
186.317 90.7017 78.685
181.773 120.421 108.158
197.952 120.48 85.8035
222.286 161.938 171.777
208.599 125.866 89.635
200.753 136.201 142.357
181.701 40.8181 9.91995
151.432 173.251 45.6592
212.033 140.511 124.998
216.872 130.79 87.3715
210.426 155.43 105.854
215.885 145.606 98.4141
215.353 158.088 145.291
266.145 147.972 288.316
276.486 152.161 298.637
96.021 42.7143 -43.0866
238.559 126.347 208.976
356.968 227.825 488.037
96.491 29.7793 -38.7239
413.098 256.278 610.868
283.541 163.479 324.119
258.94 143.274 270.07
199.244 92.707 121.76
12.5315 -148.678 -482.861
188.697 83.4169 95.9256
143.917 32.3814 -11.07
194.859 85.715 102.482
182.853 92.5326 112.549
202.15 95.7551 55.6201
262.611 148.65 276.031
175.806 88.0114 97.5058
181.867 67.9851 21.5273
185.931 92.338 110.515
210.033 91.8818 130.803
771.006 544.111 1348.66
195.676 75.7955 100.531
156.448 85.9374 57.3142
238.88 127.75 208.908
194.392 75.8002 129.435
147.995 72.4824 66.9119
190.707 96.9378 121.45
120.426 21.4771 18.644
247.357 136.867 225.289
201.12 90.5225 115.417
180.402 95.0502 115.686
193.957 99.3704 122.114
250.181 139.571 241.633
171.155 80.5629 103.065
277.28 156.155 307.291
179.127 80.2629 74.8268
207.282 102.448 113.823
163.431 81.4825 89.1517
-854.403 -718.59 -2222.53
166.537 81.4692 64.664
208.309 97.3855 135.841
280.035 159.14 317.672
270.79 153.138 286.088
173.014 75.8371 100.098
109.468 5.88827 -78.2714
267.049 152.829 289.747
251.162 139.29 260.348
175.056 60.5913 94.3459
203.979 74.6952 116.369
174.049 56.978 74.192
179.102 86.0935 45.8894
179.616 72.3238 103.307
158.528 60.2686 72.5258
199.533 130.477 147.074
278.264 159.349 308.558
196.613 84.0996 139.378
198.193 48.1731 43.2437
275.127 154.09 306.81
252.259 139.186 250.377
184.235 76.6548 47.0402
205.181 102.618 102.678
204.097 90.0598 103.516
197.612 37.8945 55.8461
202.149 91.5744 145.857
209.659 77.8214 93.0363
196.441 79.641 37.8602
-1188.44 -1512.59 -3562.85
423.296 312.053 729.948
125.514 14.2152 -23.5549
217.223 133.136 144.58
237.649 118.984 186.311
209.633 95.8573 107.647
252.23 131.404 228.057
112.086 -21.6752 -106.26
292.364 170.698 347.276
202.251 69.6252 83.6109
248.477 125.709 212.758
211.074 82.2435 94.9386
194.855 66.5066 62.0505
237.487 140.191 216.223
291.003 168.537 349.173
234.07 114.827 188.931
114.423 -3.90075 -103.594
197.77 63.1034 53.2864
240.232 119.819 186.455
277.5 155.011 308.178
182.769 68.9438 56.2252
245.684 121.009 201.971
229.504 129.337 156.48
208.794 93.9693 136.349
197.072 99.6301 92.8748
250.655 132.745 244.886
210.01 91.3793 120.562
183.978 44.4499 31.4084
233.762 125.833 156.001
190.48 93.5878 66.7417
753.176 644.593 1745.61
354.031 210.272 519.352
221.395 138.007 150.984
157.314 68.3713 22.1798
244.437 127.986 215.076
174.396 75.406 74.9448
575.517 430.424 1099.09
205.099 102 126.171
450.152 277.835 705.466
171.941 101.87 97.9108
206.645 70.666 109.293
-603.599 -667.031 -1801.79
231.487 131.021 198.332
214.926 93.3844 97.6632
177.454 81.1328 80.2558
172.181 85.6673 -6.23282
116.011 13.9011 -96.818
190.394 110.793 118.392
213.824 107.01 118.717
244.812 125.546 239.665
159.443 -1.89858 -42.3325
219.93 138.963 157.588
262.185 142.148 264.722
208.519 96.9453 160.125
94.6553 15.8073 -178.376
207.567 99.4674 153.866
159.978 58.5543 25.9077
229.238 129.086 186.125
138.477 44.6415 -83.3278
247.933 133.769 228.211
105.037 -15.2541 -132.274
197.029 92.849 110.774
365.91 236.347 496.412
205.124 104.167 138.288
-240.349 -196.354 -891.646
210.13 88.5382 141.049
90.527 40.8784 -99.0984
191.959 73.5615 94.3869
179.305 80.8297 112.357
456.078 280.096 672.434
236.277 129.225 221.657
197.828 103.753 108.352
260.636 146.05 278.849
309.713 186.676 389.528
195.135 85.7978 91.0238
245.296 132.061 241.781
205.914 77.0133 138.909
209.375 105.911 139.591
180.403 85.8806 113.968
192.915 78.4018 116.5
875.833 705.329 1660.62
241.722 123.391 211.821
332.041 209.85 436.993
700.569 512.387 1321.91
197.691 92.4574 120.315
187.239 94.8885 37.2893
210.692 91.0731 129.559
196.969 78.3278 105.707
131.453 48.3664 -152.142
208.097 91.3253 75.8799
-203.553 -229.981 -787.755
288.297 166.196 336.53
209.913 103.391 129.928
201.394 88.9596 124.286
-226.233 -267.427 -1016.27
198.563 80.6587 112.128
203.126 107.849 121.245
240.679 132.779 209.133
260.068 135.78 258.618
250.097 134.147 241.491
168.95 75.6655 61.0763
192.919 82.7351 83.9735
208.787 111.043 129.54
287.707 166.156 330.299
192.285 78.2661 82.8773
177.552 100.853 97.7646
275.75 157.533 307.429
143.358 87.9988 -14.4923
190.67 91.5494 119.758
190.162 46.3166 35.5122
228.709 129.512 178.955
202.902 63.8428 56.3565
168.867 87.8544 48.6464
141.855 60.3111 -4.02012
2484.85 2372.43 5742.98
437.777 280.838 670.413
186.244 73.7477 133.883
189.477 87.304 107.776
232.331 122.72 208.258
326.211 206.711 441.078
143.662 54.9858 16.8065
245.024 122.816 233.916
207.126 121.752 112.556
164.2 65.8532 62.3929
178.352 101.45 101.425
265.896 149.542 286.749
185.747 85.2006 125.091
236.831 115.465 207.976
185.404 91.4498 108.322
349.392 215.017 468.791
499.92 324.46 795.873
170.131 80.6356 76.7733
272.089 151.74 295.05
209.209 74.7363 117.23
240.957 121.769 206.734
179.92 73.3618 64.8163
281.953 161.403 316.498
236.276 116.311 188.908
193.916 87.0832 47.1612
195.125 98.1952 89.7714
180.383 51.9788 64.2421
169.385 69.0027 83.3221
205.313 51.5783 76.7412
184.746 66.9729 74.9338
-4201.81 -4521.61 -12825.1
203.506 81.4673 142.256
194.137 65.04 58.8777
159.402 62.3263 36.0304
283.547 161.268 317.885
248.851 133.343 229.279
207.648 97.0857 159.567
188.674 59.135 27.7581
252.352 128.693 231.345
210.335 92.4442 150.848
166.341 82.2267 66.7451
127.536 67.3604 -3.63907
201.79 138.929 152.609
270.814 147.406 287.104
230.408 117.941 188.31
227.197 127.054 155.682
207.697 93.5168 159.54
187.927 105.271 84.5197
212.353 69.5174 56.1321
215.643 152.837 156.733
152.97 41.999 -39.7828
183.335 102.242 83.5745
249.893 137.528 241.207
198.958 102.693 104.057
-1382.91 -1325.6 -3497.61
242.354 119.508 217.255
180.314 71.9638 64.9782
141.726 -23.3958 -90.9325
-4189.88 -3393.89 -11772.4
831.494 627.589 1417.76
-10.4495 -90.5368 -383.276
198.509 100.846 112.848
2606.97 1924.58 5293.7
233.901 119.218 203.118
241.796 126.426 222.667
-603.582 -489.83 -1337.71
186.665 95.1971 119.364
1790.97 1558.02 3333.12
4438.14 3028.23 8413.75
185.259 105.005 76.6349
256.363 144.385 253.936
303.168 181.156 365.393
210.137 94.1484 116.761
139.225 49.0733 19.9473
178.726 64.3322 92.9257
241.306 134.459 202.91
187.539 100.755 96.4527
296.105 172.55 348.208
256.427 130.862 251.974
207.903 94.554 72.9062
206.3 95.4686 149.899
151.935 49.4928 46.6414
209.636 84.4876 108.496
196.743 82.6088 65.6564
1231.41 1202.75 2748.14
175.621 48.5735 42.0197
51.3221 19.4378 -164.093
171.392 74.516 97.1146
180.036 89.1614 15.2549
254.058 138.828 247.715
175.862 70.5553 86.8324
141.837 60.6691 47.2372
134.071 70.1731 9.24212
187.44 87.4458 69.7821
178.85 72.6811 102.879
204.088 79.7791 124.25
185.098 79.0003 110.624
144.247 9.28528 -48.6377
173.688 67.127 74.5557
202.166 81.6852 123.976
245.701 124.143 221.492
247.685 131.789 233.851
135.572 52.0643 -4.26511
191.899 92.216 112.927
235.927 118.277 195.659
302.602 178.881 372.508
203.61 73.6173 91.3631
197.442 89.0526 117.397
233.828 120.027 194.704
207.72 105.001 134.218
173.922 84.986 102.363
208.942 82.7345 127.443
181.786 94.5936 55.4907
235.967 121.065 197.728
200.389 97.2762 123.195
189.911 93.575 66.0665
206.516 80.6473 79.4375
-2.77607 -117.147 -427.701
197.109 101.762 126.472
188.2 64.7339 71.9973
199.455 94.7799 148.679
144.828 24.2224 -112.988
167.644 93.819 4.79116
-7747.18 -6373.88 -15921.3
196.375 55.3357 70.231
260.101 137.234 243.46
192.757 64.3798 71.0337
175.544 63.9879 85.0515
202.182 97.3866 109.244
257.735 139.921 245.98
196.002 90.5926 128.901
155.466 104.267 20.2629
180.084 85.9132 103.613
183.392 53.0802 81.7758
-48.2803 -177.135 -502.856
201.85 86.9834 82.6799
190.373 15.2372 10.4012
190.158 107.204 119.152
179.675 78.9261 97.0784
2.29099 -14.6561 -540.668
-81.1397 -131.732 -405.621
175.373 90.922 93.219
184.081 93.8178 114.166
81.4423 23.7883 -46.9911
204.057 95.8845 118.257
180.086 95.4591 117.352
262.862 144.733 280.074
-169.805 -169.138 -524.15
120.186 23.0168 20.4069
238.177 123.736 194.477
187.56 96.3886 107.18
173.83 47.8107 63.9918
206.316 92.0721 130.149
117.522 14.2539 -40.8537
196.027 85.2352 123.051
193.61 91.1399 117.697
288.037 166.325 334.093
148.703 69.1216 40.6008
277.474 157.884 316.426
-2453.61 -1731.21 -5720.47
193.822 79.7117 110.001
194.563 78.3133 103.486
184.195 80.3673 131.074
386.887 225.904 577.056
127.034 52.0213 -151.43
251.57 138.891 250.157
236.17 121.922 221.32
204.559 99.1404 117.993
179.195 80.361 91.6174
243.047 139.181 225.545
258.321 141.849 254.712
228.183 121.357 172.943
175.49 90.1421 76.6996
175.484 87.2808 43.8793
158.992 64.4765 47.5557
197.531 99.4538 138.376
197.064 51.3414 38.2387
208.488 61.9765 100.131
200.213 95.8429 112.104
80.8547 -9.3673 -55.9439
985.196 829.684 2091.13
300.774 176.517 356.453
164.364 79.0791 -24.9861
249.881 132.482 247.039
261.565 147.506 260.056
168.61 63.7575 82.0224
110.726 16.3335 -122.335
195.988 66.6922 111.349
185.543 82.7875 117.662
248.444 139.673 228.461
240.299 132.847 235.366
200.464 91.5573 80.9617
205.727 91.4046 118.973
194.052 69.2101 101.599
318.742 200.519 412.265
155.526 46.7762 21.2551
513.136 322.543 794.141
177.866 77.7093 55.0614
190.553 81.7602 78.2257
260.166 137.795 262.345
237.761 127.51 228.248
193.853 52.9972 27.5211
188.456 79.6875 15.9597
236.194 124.869 216.065
206.59 104.477 140.615
170.564 49.3145 50.4373
256.595 134.627 251.879
189.76 66.131 32.7411
189.201 56.7768 16.5622
204.034 118.353 114.331
249.276 127.905 221.53
191.534 68.322 104.234
207.797 98.6706 132.165
200.157 94.326 103.36
322.293 191.814 407.157
178.46 94.4731 103.138
165.505 57.8593 41.14
188.965 78.8663 65.0625
166.32 70.2336 81.3035
157.676 73.7235 69.7467
157.362 44.0696 58.5347
202.383 78.8005 71.1356
331.245 199.433 436.144
480.949 340.696 720.888
154.95 79.3153 16.2438
198.99 91.9983 120.825
210.401 96.3171 131.486
190.355 85.8241 143.467
750.741 509.672 1413.26
210.02 97.8612 154.05
154.175 66.22 45.2622
176.939 82.8594 56.4459
178.605 90.8277 60.2522
246.866 125.294 238.482
178.267 104.669 110.705
131.694 35.0689 39.3801
321.754 192.572 399.666
160.593 63.2487 69.1054
183.674 88.0391 84.5405
94.2947 9.9467 -147.876
152.771 72.702 29.7314
144.973 73.7524 53.8664
230.581 120.004 190.413
274.618 156.391 298.873
1336.75 1176.73 2758.51
163.435 90.0471 44.3533
599.672 447.153 1067.25
174.408 100.388 77.3324
200.616 87.5137 123.267
187.884 75.9809 118.966
259.598 146.14 277.327
285.886 164.009 325.111
180.912 92.6518 22.9844
140.548 75.311 -48.3361
192.2 87.7659 101.086
195.334 97.7284 119.066
379.966 260.073 597.674
288.258 166.389 331.59
244.606 123.058 219.889
-58.3729 -148.204 -606.402
176.254 91.2957 85.698
183.055 80.1561 59.8942
193.695 76.3852 82.7192
203.335 83.1121 77.8876
324.361 204.075 419.503
205.584 72.1505 116.104
232.961 120.037 194.571
174.48 57.5922 -14.3712
298.214 175.475 364.24
187.598 85.8456 65.7495
