117.397 68.5721 -75.1568
159.854 63.586 -25.7381
129.206 68.1493 -8.44311
116.428 64.5476 29.9123
187.908 41.167 -40.8382
111.834 80.0762 2.78939
131.134 60.3222 -67.3886
124.643 82.9563 -43.7837
124.371 37.5236 -65.1647
169.729 54.1522 41.3132
189.332 43.2585 -51.9767
149.001 41.1921 -7.64132
162.144 27.7585 -1.45902
156.588 31.5831 -11.0034
167.592 73.5851 17.0729
150.645 121.746 186.477
156.107 61.2115 -44.9027
148.713 76.1689 23.0982
156.94 171.742 330.037
143.019 72.5393 10.4745
158.901 81.325 38.8312
130.679 56.4171 0.884113
163.387 70.4924 -33.3561
151.807 64.3086 -4.23811
156.605 63.5 9.44826
144.576 71.83 -11.0038
170.67 79.129 33.0425
123.987 59.1707 3.38741
127.887 63.082 -111.769
162.384 92.2694 61.3933
127.818 87.8861 -91.6546
165.805 76.573 -32.1642
149.718 53.0521 -2.28174
156.709 58.3842 -2.31483
111.722 33.7067 -136.59
153.615 61.509 26.9733
166.451 62.3154 17.8783
157.337 99.1596 111.658
142.449 54.9806 -3.60947
175.525 45.6695 -7.60875
189.185 43.2845 -5.94651
122.605 62.4165 -12.6109
122.726 62.3775 -12.8883
135.549 49.1692 -25.4599
170.385 49.6968 -8.21381
135.957 39.6084 -15.5528
159.466 47.3404 -40.3263
127.548 55.3446 -96.6486
147.649 65.7794 26.0301
156.267 28.0092 -36.5763
132.638 -356.006 -2159.92
162.918 39.7507 -20.2439
161.082 71.9772 10.2044
126.303 69.0364 -57.2016
127.013 69.4502 -52.6601
110.137 71.6358 -24.8517
146.098 -62.8761 -216.654
79.9866 -83.6335 -393.069
131.311 78.7788 89.9536
139.612 52.3419 -178.361
157.035 -83.6644 -349.425
121.513 86.5278 31.5621
130.576 47.5551 -10.1932
156.075 -69.7392 -226.231
123.416 57.9414 -4.9891
149.415 59.0182 -3.45294
183.639 88.4149 29.3978
166.717 -21.2905 -161.314
148.591 37.2872 15.6725
170.581 81.0538 -41.6478
110.854 69.5424 -13.2549
159.726 84.6589 -17.6448
117.075 45.6301 -68.1563
187.41 8.73694 -52.3829
142.216 66.297 -19.6915
136.338 57.9 -108.261
196.546 9.30641 -45.093
135.031 64.0943 -35.0044
163.937 23.6147 -19.3471
141.411 28.1547 -32.0651
165.047 44.4092 -17.5454
174.38 186.173 -213.809
149.228 13.9423 -27.7302
143.654 105.317 120.481
147.498 100.414 50.972
176.904 76.6764 -11.8659
148.076 98.8407 42.2159
149.005 28.1311 -38.0838
119.967 96.4643 22.3207
167.261 28.7957 13.2382
120.334 69.909 10.7282
172.275 31.0611 -34.0326
170.981 74.9835 -17.7577
163.977 11.598 -50.1341
154.997 84.4796 -40.7325
101.487 77.875 -29.8144
160.272 99.8668 20.0766
144.013 71.0524 -34.1159
133.988 57.5779 -120.762
187.31 17.0737 -44.3731
172.706 27.7196 6.89234
147.829 43.9884 -54.8874
185.651 60.1437 -15.4998
124.582 56.2174 44.6296
147.687 85.94 65.4839
124.956 50.1791 -9.86486
154.665 -124.574 -418.294
142.108 59.75 28.8171
191.708 58.9465 -15.5614
114.467 81.0906 -17.3623
127 38.3503 30.4518
168.127 -23.8168 -148.49
154.551 137.551 228.281
118.342 84.5089 -32.946
89.7571 84.5599 -27.1573
127.658 37.8244 -37.3107
150.058 43.4137 -29.8396
141.089 140.724 -313.063
139.725 96.2843 128.669
115.982 110.109 -33.9519
159.272 44.6037 33.4633
111.533 68.1167 -113.482
-93.1014 -940.382 -5595.08
124.034 62.5781 -14.8437
173.368 59.6827 -54.2548
125.66 94.0431 -108.621
131.627 111.442 64.0477
127.545 64.7789 -35.2041
149.162 63.3448 -76.758
148.988 26.4916 0.447328
122.232 74.7545 -0.416536
128.041 20.3368 -31.9947
126.509 72.6265 -55.753
129.344 36.7015 -175.93
132.861 149.576 87.7298
128.757 14.1046 -249.676
149.007 86.5405 71.4554
148.23 24.5756 20.786
194.911 16.1315 -97.6261
125.167 80.2679 -88.2333
154.178 95.5879 128.024
149.486 60.8992 -58.8392
182.091 54.0404 4.5605
169.89 9.82111 -29.5088
133.039 6.22845 -371.288
164.3 18.0507 -40.9401
150.336 42.1831 -51.6122
149.14 15.1368 1.34079
187.935 32.5011 1.97241
172.059 56.2012 20.3484
167.949 36.5371 2.58348
122.554 56.6924 13.6127
160.076 44.8423 -39.9271
368.49 1344.45 2609.36
120.231 146.75 -35.5381
158.474 66.9922 -37.8496
175.546 60.011 -50.1127
130.542 90.1323 -12.5284
183.608 39.0556 -62.1419
148.698 65.9584 66.1064
124.612 62.3054 -40.321
135.14 136.369 -122.352
136.51 83.8 46.869
165.282 100.925 -38.1237
116.87 186.421 -114.393
195.502 17.7309 -2.36069
130.858 93.4366 26.8094
181.161 151.19 78.1379
150.372 126.571 259.338
131.541 61.1792 -118.469
147.658 42.6915 -95.9216
165.445 134.267 126.277
156.407 103.91 126.114
162.629 184.025 748.116
143.625 159.325 122.837
140.639 130.459 -201.096
105.006 147.454 -27.111
153.677 115.477 191.975
137.254 26.9045 -178.839
154.987 138.701 199.823
144.043 153.288 1017.34
145.815 181.919 57.7821
169.721 116.218 69.7416
125.593 76.9534 -91.01
143.43 99.1897 118.355
151.378 116.933 106.301
125.511 95.7599 37.5527
160.895 194.625 502.76
113.744 118.712 11.1259
156.264 113.374 51.3343
110.842 151.257 -24.6763
138.5 75.0626 -28.9415
169.82 129.88 116.606
179.398 119.004 -67.5419
188.133 214.003 978.327
155.775 138.857 -10.8828
123.933 106.878 -83.0139
195.585 183.322 -231.132
123.421 154.824 -121.602
121.559 154.75 -6.12993
198.196 113.396 -75.0992
119.574 116.511 -92.7268
156.083 155.655 208.996
171.582 142.204 -54.2883
169.555 127.714 -90.866
158.895 152.697 63.7931
128.616 188.939 -125.64
149.473 147.92 107.317
166.178 83.0702 67.8301
206.707 93.8884 -43.0578
127.138 113.834 -296.113
132.161 107.955 43.0391
168.136 115.532 -124.207
181.545 23.87 -217.997
147.461 160.511 142.267
181.945 119.627 12.2643
157.69 31.5965 -67.6044
127.082 88.3982 86.3595
133.825 41.3711 -66.9162
186.983 55.7925 6.12054
162.198 75.866 0.238274
134.664 63.2422 -34.0956
143.513 -34.3253 -235.155
156.851 -91.4685 -283.449
125.3 50.2301 5.46414
191.552 89.272 -12.8463
173.839 -7.66214 -74.9208
176.188 45.4655 0.232296
149.15 51.0518 9.67175
122.711 83.9318 -62.4104
152.019 68.8278 5.0387
126.515 45.3583 23.8511
132.518 81.1228 96.7315
118.683 45.4325 31.2083
155.188 35.1895 14.6603
159.637 53.4922 27.7809
136.152 22.0521 -140.663
167.138 88.7105 -21.415
126.315 27.2765 -150.687
155.756 79.5932 -29.835
125.029 59.3149 5.7644
173.337 39.6697 -44.1109
122.452 90.2881 -2.12082
143.109 65.3683 8.62744
148.165 82.8555 44.638
122.068 55.667 20.0313
148.032 64.9974 -25.893
127.216 68.4041 -36.5631
-55.3228 -924.159 -2047.18
148.5 34.2264 -24.7386
150.618 68.2654 -36.6545
155.424 52.472 -11.5556
147.966 36.971 -38.3103
122.299 66.4673 -17.8491
118.261 65.0821 -1.09908
143.556 55.8138 -12.3617
115.772 69.8222 -11.5837
156.025 48.2236 -33.8378
165.06 60.6819 -13.1812
150.647 49.7542 -28.9723
156.551 54.5811 -16.6825
164.5 52.1676 -18.3795
163.59 36.2942 -26.5251
144.47 49.6247 -22.8339
162.894 53.8891 -20.7336
170.305 75.6396 -15.021
129.276 65.4835 -29.3711
133.354 58.4892 -46.0603
148.159 69.5612 -22.5846
155.343 82.4822 3.64225
155.578 86.6422 -6.51472
158.641 49.2161 -22.3143
157.815 49.3863 -23.1233
173.1 26.2107 -50.2805
142.443 51.4622 -29.3316
118.693 91.141 -35.4558
134.11 0.779007 -358.065
115.961 -968.707 -3867.56
154.683 60.2367 -50.4992
142.367 53.4305 -10.6559
142.22 52.711 1.80411
93.5466 -1531.65 -5104.42
188.938 71.3748 -2.46956
181.945 67.0398 4.38561
153.686 99.9721 78.9722
143.437 80.0127 15.8717
155.716 72.7531 17.2627
155.053 74.2411 15.6074
109.511 79.0891 23.0342
123.669 59.1643 -4.84737
146.182 138.315 242.511
136.383 77.7409 -23.6277
121.733 55.5547 23.6876
128.973 75.2054 -9.23912
135.358 114.358 70.3465
183.561 55.9296 -4.26577
155.948 155.09 258.512
95.5899 53.3045 -62.6172
172.885 20.7629 12.0662
185.177 109.991 -57.7916
156.262 119.167 160.599
143.31 44.507 28.6454
144.487 58.2823 9.17697
139.597 -74.3733 -818.975
135.974 33.109 -1.96547
132.366 66.3562 -118.031
143.554 31.1866 -14.8131
168.476 27.5922 -8.24359
185.272 79.019 18.0403
172.499 134.482 -186.294
139.605 95.6833 127.377
140.725 38.186 -159.927
158.923 -122.609 -340.498
131.415 61.7629 -121.125
126.345 67.153 -41.9701
130.872 34.1956 -200.716
122.25 84.6839 -5.99774
193.545 82.1814 -12.0042
149.351 64.647 29.5633
152.161 -1.66537 -215.604
163.932 55.2232 -44.6694
154.746 -195.479 -441.333
180.721 21.9158 -61.8119
148.298 33.4706 21.3084
147.389 -63.2906 -216.486
155.601 8.36091 -19.877
135.608 53.7799 43.8441
143.017 54.2819 -7.13533
181.291 15.1643 -50.2063
164.357 43.1124 29.1697
119.998 50.8483 46.7383
148.247 76.5069 80.4614
164.251 4.32697 -55.1135
142.56 53.7081 30.3957
149.666 4.87526 -58.4355
135.551 -52.2676 -389.247
176.432 54.5866 29.595
110.317 114.487 8.34416
149.165 43.6391 24.0001
162.045 32.8498 10.3717
119.963 86.9556 31.4156
156.809 22.183 -15.0529
155.058 34.3321 9.13295
136.81 38.2838 10.6412
186.086 17.2248 5.63826
177.554 0.430563 -31.7625
150.999 48.1536 -7.45567
148.919 37.7128 1.11848
174.043 84.2379 -29.3473
150.659 103.879 94.8869
129.196 9.76392 -256.184
173.749 58.1064 -43.021
150.705 56.7802 24.2148
137.161 37.1024 21.3094
166.15 56.4905 18.6397
124.179 105.958 -165.17
150.426 92.8615 122.909
156.235 -56.5649 -181.641
154.237 61.726 35.073
153.803 73.9398 -63.3297
153.328 51.2131 38.0344
159.93 60.1994 11.7172
175.053 15.8385 2.95159
145.139 72.8174 -45.8203
149.673 148.802 406.303
159.01 36.8568 26.015
156.676 127.331 -32.2497
161.088 36.5985 17.3394
153.604 94.168 -126.859
150.844 119.441 206.088
132.639 42.6832 21.8307
138.338 212.178 -560.627
166.261 81.7938 66.4958
117.182 59.6086 1920.5
122.864 100.84 -149.533
131.135 62.052 -332.295
152.059 132.15 141.41
179.667 147.504 -6.06626
151.211 127.361 230.222
165.876 101.834 78.2587
123.272 113.535 -250.544
143.549 136.292 531.096
119.318 124.131 -77.0069
165.933 12.5325 15.454
179.802 95.115 -48.2105
145.776 127.076 299.962
197.271 48.0078 -90.4757
172.404 80.0406 55.6774
104.975 140.768 -25.0246
119.312 119.682 19.2227
122.877 191.475 -72.2578
153.282 44.7099 39.5057
135.832 -101.402 -915.009
154.458 162.999 -18.9678
165.287 31.3645 -44.2952
111.746 63.5131 9.00977
109.318 138.707 -0.209354
174.729 142.297 -15.0856
136.724 23.9974 -135.174
165.822 84.4295 31.0788
180.501 218.4 588.806
167.673 27.3238 -9.3093
125.552 54.4139 11.0772
162.706 74.4952 -1.3761
136.35 39.7365 13.2988
181.869 66.984 4.40765
154.285 81.1043 -25.1767
171.405 76.267 21.0628
165.574 -4.9329 -63.1655
170.119 49.54 -6.97231
160.164 54.9459 -22.9515
161.242 62.2773 1.71911
124.613 69.3199 -87.6718
133.801 29.3361 -58.7303
154.02 88.1145 42.2419
151.996 142.385 254.111
139.888 -21.1138 -133.703
167.26 28.1341 13.0376
131.841 65.1061 -137.256
127.974 69.3664 -99.0855
123.246 90.3587 -1.67123
144.042 81.5676 53.8083
175.511 58.8248 -4.90669
167.05 63.4311 -24.581
129.818 64.5691 -15.0474
164.757 85.1864 29.1708
130.818 56.6806 29.1599
136.695 61.9183 -4.30109
142.015 38.5483 -31.1876
174.55 47.1623 -4.57432
137.151 55.175 -1.07545
136.657 61.2189 -4.57714
125.343 57.5788 -49.7965
143.221 48.6344 2.29456
169.913 36.6477 -7.47008
150.097 43.9044 -6.54082
162.376 41.21 -12.3503
113.498 86.3063 8.2521
162.93 57.0092 -42.3782
157.455 29.8123 -42.0043
116.751 67.991 30.2578
166.226 520.234 1729.12
129.891 62.3262 9.96205
157.201 56.2488 -33.8917
136.78 51.8832 18.5558
155.472 31.016 6.15402
145.025 81.0689 -60.9501
114.195 71.1262 17.0129
136.271 62.2744 -115.532
162.29 -0.541027 -27.7633
148.336 69.2279 42.5674
121.508 71.5372 33.1434
134.732 49.2967 -41.7269
129.005 65.5857 -186.654
125.444 80.8499 -77.7407
151.586 75.1024 -40.6358
136.913 51.2819 14.9
132.097 35.2751 37.652
179.271 74.5357 25.1807
175.688 16.1653 -17.9794
174.895 10.0037 -2.63353
186.054 5.07822 -32.3655
176.873 86.5901 -2.48892
149.191 43.1853 19.9874
169.906 20.883 -0.604336
175.644 90.9932 -11.5723
150.773 46.8093 -30.4289
176.267 63.5397 -10.3211
120.231 70.4669 -31.5751
131.935 48.5462 5.29293
170.436 61.4035 36.5747
137.512 39.0226 11.7274
161.715 14.8279 -28.2492
149.548 53.4665 -37.5423
142.946 30.763 21.1096
148.383 66.7824 33.1424
196.235 7.87228 -46.9884
125.849 47.2045 16.5474
166.018 80.9439 74.172
159.633 84.2129 92.9911
178.517 70.0132 23.2064
177 31.4754 -24.6945
130.193 45.7897 -57.4553
119.489 72.7351 -44.8787
143.29 66.2933 -16.3399
134.067 64.5136 -25.784
142.674 24.4937 -19.4534
126.728 46.9571 15.4741
136.823 45.9279 -16.1581
164.444 73.8598 0.0832066
157.71 38.8195 -19.8691
129.626 66.7683 58.3715
164.172 53.6963 29.4106
182.619 20.0904 -17.8771
164.261 188.973 443.989
171.451 72.3068 33.6968
133.585 2.66343 -345.018
151.399 80.8116 52.3498
139.295 76.3696 81.2195
142.846 41.0339 -2.18144
132.857 58.4216 -79.3675
144.482 -81.5564 -245.645
157.066 -9.58993 -102.738
168.158 -27.4648 -134.343
150.612 62.778 72.9883
150.383 109.125 162.744
158.069 143.856 217.912
136.576 -19.8723 -152.458
121.064 60.8906 14.0891
140.256 102.3 80.8643
168.718 34.2737 -4.32027
177.058 52.6248 28.4542
161.081 184.926 296.884
318.437 1153.43 2109.12
156.838 95.3476 139.46
154.319 60.6797 34.8604
149.77 35.1545 -1.27924
143.811 49.5676 21.1163
176.164 65.6561 33.0647
122.359 102.793 -1.88506
123.078 57.4658 -6.82834
158.472 103.244 91.9979
135.651 38.582 -80.095
174.107 35.9624 3.22616
183.187 67.7769 -48.4336
171.089 159.032 71.2988
179.021 41.6352 -21.0271
141.843 156.968 -643.352
163.661 20.5046 -45.0617
144.458 81.2248 68.1809
150.273 53.6267 20.7823
164.441 4.64175 -41.9191
161.285 93.1653 36.3846
153.007 85.33 54.9368
121.883 51.6981 45.115
117.294 79.2606 15.5564
136.385 84.887 -25.569
144.772 78.7241 -93.326
125.24 62.0568 2.25165
156.185 128.024 85.1404
155.857 154.011 -155.412
147.935 114.675 -55.3692
2316.11 2739.3 57039.8
201.161 86.8092 -20.0677
102.476 102.399 -51.845
131.576 -23.5169 -440.182
126.354 119.347 -173.593
99.6524 103.815 -29.0364
187.723 154.883 18.6628
136.277 46.3666 -25.0774
164.915 48.199 -51.532
132.499 62.3113 -142.21
119.046 100.202 16.3409
123.367 -812.161 -3945.68
570.49 1174.05 4778.8
131.631 59.1097 7.29761
150.815 39.2209 -4.27722
157.088 58.7099 -40.2569
190.077 6.53108 -11.7467
126.563 45.3721 23.9005
143.041 19.2778 -3.02891
144.275 57.6306 -19.8471
160.036 77.7837 25.8946
162.622 380 1121.08
133.65 57.3106 23.6844
135.816 58.2393 -12.429
120.349 84.1324 23.4698
136.817 34.0825 4.66812
131.389 56.5455 -57.1569
135.439 44.3172 -107.956
129.499 61.5967 -14.8864
120.627 75.6517 28.6797
141.086 54.9353 -8.92194
185.823 43.429 7.22612
162.217 28.7202 -19.6295
156.087 69.6257 7.22833
139.562 -5.41264 -135.483
165.14 72.4666 30.799
153.608 41.3096 25.1114
141.877 58.6981 -34.0609
156.888 41.7306 -37.4503
134.846 76.3332 -6.05784
136.034 79.0081 -37.9363
137.391 -8.99093 -132.449
153.107 155.753 331.86
142.496 53.7473 28.6251
169.779 62.507 -11.6279
148.036 41.7093 26.4466
155.232 19.797 2.29281
156.871 36.0883 -28.9421
119.954 58.643 15.2981
158.313 46.3151 -34.6341
125.85 52.0562 13.1674
142.437 60.0437 -25.6126
136.521 51.5982 -30.4828
191.652 89.5708 -12.2019
134.996 47.4204 -13.9645
129.427 51.539 -1.38091
132.066 44.3442 14.9842
175.818 58.9363 -4.13575
136.966 69.2524 -0.51384
143.459 89.5408 60.6848
150.381 82.7882 -23.1216
160.52 167.379 271.909
177.362 71.8677 35.5227
110.192 69.4511 -12.8496
158.881 -142.564 -292.683
134.782 47.6378 -23.4503
127.384 39.0601 -36.1659
170.695 222.049 397.103
118.65 47.5385 36.7567
131.866 65.8952 -6.66769
157.118 -10.5349 -105.109
122.698 46.4628 26.3088
167.416 74.9182 -35.5599
137.566 67.7229 60.0167
122.173 54.0283 56.5522
173.265 62.2025 21.9972
118.073 48.2675 19.9914
152.936 -154.158 -463.406
164.954 44.0769 31.7035
138.205 -200.886 -1579.17
122.302 65.5762 -18.347
126.787 44.9625 11.0801
142.062 25.3615 -118.999
156.515 54.3048 -14.5562
165.329 82.7763 -15.6855
159.848 54.7205 28.3846
178.296 38.3076 -36.0467
182.547 11.6882 -14.7327
148.615 60.284 8.45709
136.896 42.3288 12.6066
148.619 27.8019 30.8707
146.357 46.4056 38.6401
163.48 31.1631 -20.1391
152.742 73.1211 64.3399
190.055 40.1307 -64.4455
166.999 95.4164 1.78404
180.473 84.0606 15.1254
179.922 350.872 671.184
174.09 16.8968 -71.757
161.148 64.3694 -35.2703
154.58 116.123 178.992
169.834 50.701 -21.4825
159.466 96.5679 52.62
161.142 72.4238 7.08911
161.407 71.259 59.2057
172.048 25.3189 19.1172
121.948 83.7884 -4.80415
137.745 8.48613 -78.0085
155.253 125.768 202.315
178.611 30.3482 15.7497
165.937 41.256 23.4694
132.104 46.4178 17.2064
189.898 33.0559 -16.168
161.212 40.7473 3.4015
130.177 52.9213 -14.2504
115.165 121.06 -22.6541
157.779 113.931 145.036
157.84 122.479 144.459
173.215 158.219 85.701
142.617 89.7488 89.8855
142.629 23.4286 7.29143
128.11 56.7673 -24.4433
124.49 68.7277 -40.4101
134.61 35.6859 -94.9682
117.921 91.4778 -9.90337
141.231 107.321 169.628
151.313 124.365 216.124
167.505 98.3129 38.2502
150.229 53.6861 20.5811
174.092 162.488 2.41471
142.646 73.727 42.4845
110.455 53.6764 43.5084
129.357 121.396 -602.402
188.781 49.5956 -33.6846
156.013 40.0892 -38.7612
97.6344 41.7717 -91.5975
136.276 79.6936 38.0658
134.565 7.6489 -53.8637
149.169 10.455 -80.22
178.914 56.7213 -44.998
135.745 57.0332 -29.0381
134.856 56.055 -22.651
116.58 59.5384 -24.619
156.815 111.536 177.146
134.605 61.2372 -25.986
150.455 118.774 171.45
134.739 -9.38714 -71.1632
150.067 14.1339 3.43902
121.178 59.5546 35.3521
174.075 -2.33731 -98.0093
133.506 44.3622 -34.3124
157.822 36.2397 -19.8606
161.412 84.452 9.6184
196.355 26.7534 -55.3064
136.667 44.343 -4.8302
109.91 75.4121 -10.5557
139.702 53.2113 29.6981
151.272 70.1887 -15.771
157.151 44.7261 -25.9231
155.241 54.4856 -21.2784
179.272 53.826 -32.1765
160.443 63.3154 22.9919
135.82 77.6977 62.0245
154.416 134.114 224.603
143.584 67.0607 33.5262
117.238 66.4163 -17.6327
122.431 64.1216 -7.24374
165.374 88.6159 19.4146
147.523 76.4863 77.5164
128.253 9.00795 -271.146
143.562 104.338 43.7769
131.515 43.952 -56.1437
135.379 68.9133 -25.9662
128.581 65.5072 -14.789
125.404 51.6195 17.0383
161.151 12.8578 2.19394
148.279 34.6427 -25.9841
131.509 48.9368 -1.07566
131.631 11.6199 -207.338
131.406 60.4388 -180.197
161.867 43.339 -10.8743
149.53 68.4995 0.192484
141.584 33.8515 -143.889
185.655 67.5164 18.5243
116.417 36.8595 -56.5752
142.404 83.25 26.5582
134.011 50.298 -95.3257
147.084 52.8318 42.1523
163.668 57.885 -1.68294
143.742 52.7328 -1.16593
161.471 66.5325 51.4849
180.7 56.3951 8.64753
137.693 -158.775 -1476.07
143.753 88.9249 75.5387
149.804 83.729 66.1682
125.696 57.0449 5.27093
159.256 72.5237 -4.73175
128.32 54.9807 -30.6635
155.414 -200.124 -442.065
181.398 41.9997 5.84157
143.201 70.4292 1.76522
144.2 38.3419 6.78684
153.08 77.742 -12.2379
150.27 25.9354 -72.4226
144.391 47.0821 3.21256
127.349 41.8505 18.1605
141.235 56.0411 29.7198
170.666 43.8181 25.6132
127.978 48.0003 22.3265
147.657 42.9577 10.5597
160.959 21.2309 7.57744
152.491 58.3688 47.3116
135.259 -5.06969 -53.9419
142.559 39.7315 20.795
132.351 50.7929 17.6437
149.221 36.0665 30.1713
116.973 54.1632 20.7034
139.709 43.0341 -45.3003
153.306 50.4844 37.1839
156.471 60.5084 17.9068
159.86 166.689 273.905
116.881 11.6357 -83.9882
173.667 63.2178 13.0566
172.649 34.3531 -46.0977
150.286 77.1434 75.8541
130.731 29.2013 -170.16
121.335 144.566 -39.1438
135.139 83.0362 19.266
110.152 90.2313 2.23656
165.411 3.54965 -40.5885
168.722 36.7411 1.83922
134.122 25.5845 -291.947
156.597 140.952 -157.72
137.58 61.0087 39.0194
121.253 58.2027 12.8772
190.568 6.26607 -68.037
158.061 85.9161 63.9536
138.336 -62.8459 -654.009
154.483 39.2517 -15.7775
132.154 46.1119 13.9194
149.141 69.714 -34.9224
127.905 54.9437 -92.4619
75.1809 -130.081 -430.275
120.213 71.4546 20.4519
124.454 68.7731 -47.3385
134.761 56.6015 -44.3704
164.363 37.2926 -17.1096
135.484 56.2654 -1.14507
155.108 100.278 134.829
130.278 63.5155 0.498118
121.53 45.703 35.1051
131.469 61.9048 33.814
129.57 40.8053 -2.45011
136.802 34.4949 4.40675
114.225 82.5294 -16.4969
135.008 39.9125 -17.8337
125.61 60.2988 59.7464
139.45 33.7688 -67.5305
177.164 44.3844 0.37218
156.462 94.1831 3.02376
130.286 50.3259 -0.948229
115.14 54.009 16.1191
148.566 83.6676 26.9753
122.711 31.0956 -86.0247
120.706 66.7445 15.2084
184.716 295.394 561.475
112.122 67.8731 -11.6516
132.54 57.8857 46.981
150.995 37.2963 -5.39555
138.261 46.8112 13.6495
157.702 113.399 181.333
135.118 67.4461 -26.5687
175.219 0.559551 -22.7817
137.951 63.6769 45.6374
134.31 68.0104 52.3383
170.199 70.887 -8.56185
23.4075 -652.355 -1246.25
125.09 20.1518 -154.975
129.109 62.4915 9.65442
172.661 77.1519 -3.79144
141.52 94.2228 138.337
127.175 60.0686 25.358
143.972 58.5538 -20.5452
143.24 56.0952 17.4857
143.281 40.8569 -22.5772
155.747 133.47 189.503
142.704 77.9262 85.3021
146.866 57.69 38.7921
132.188 30.9043 16.7808
127.296 78.9516 -95.2686
141.698 28.0219 -157.994
138.282 33.405 -9.5871
136.383 12.0216 -144.412
126.064 53.5627 12.2974
141.2 36.5171 31.8165
142.274 54.6318 -4.45713
156.539 27.4174 -41.6295
126.065 49.1853 22.9935
163.226 44.3126 34.6048
142.034 60.8646 27.473
163.962 79.5538 -5.60379
176.712 51.7721 28.1251
134.302 83.1476 -6.40061
132.007 6.21848 -203.14
170.49 56.5292 21.0039
143.301 74.3769 -45.2565
171.131 76.8224 26.9187
176.913 59.8176 32.3757
134.533 37.1791 -28.7392
133.972 38.7323 -69.5855
149.525 69.431 -35.3466
115.559 63.2257 -15.8393
190.822 52.4166 -50.2016
167.077 2.33445 -54.4757
170.929 14.9785 -10.4763
171.306 28.7286 -4.82065
120.527 55.9329 16.8491
157.802 38.1886 -39.0942
176.466 14.0402 -72.3094
166.759 24.7171 15.004
164.758 53.2303 -37.7219
160.275 73.6536 37.0961
156.598 39.8635 20.2992
196.469 13.4613 -55.2212
177.017 39.2131 -23.9891
162.455 26.1559 -51.762
125.539 44.6218 9.74829
177.741 65.1553 -26.8837
125.452 25.6463 -40.4812
179.292 -4.51253 -26.8039
126.51 45.3216 23.5242
162.191 20.6362 9.77843
134.821 71.9554 -35.6442
131.816 74.5223 -55.0214
153.939 155.251 289.517
106.66 29.0447 -211.002
123.005 61.6102 -7.44213
138.291 39.9498 34.5922
146.773 50.4804 -37.7157
128.062 76.2415 -107.346
150.656 74.043 -20.3655
167.458 78.9773 -25.2378
108.721 57.8867 -23.5585
130.937 45.6107 15.8554
172.913 895.032 3720.94
143.197 45.297 -41.8913
143.977 -36.3235 -508.702
123.358 64.1992 -74.2583
149.029 82.7345 57.7097
130.687 -9.1897 -93.3898
140.3 26.2666 -50.0236
153.386 56.6343 39.4906
108.131 65.4632 -21.3115
147.724 38.7615 -47.7316
136.006 34.2306 -26.1698
126.922 48.3518 11.8364
155.757 59.5363 14.4496
165.702 47.941 8.06391
127.619 60.9211 -15.3282
189.362 47.8625 -14.816
118.79 61.2018 0.595661
136.838 89.7343 64.3077
142.588 70.92 -12.7341
152.468 80.8038 73.3037
126.372 46.3383 -36.9919
121.838 56.9638 16.5851
175.135 38.8207 -20.3356
115.116 65.8122 31.3732
147.95 30.124 38.968
118.68 61.5091 7.30311
149.801 63.8744 73.0539
141.81 91.9473 97.3943
144.42 88.9532 98.0058
156.473 43.1081 -9.06278
191.256 21.9495 -26.1933
121.43 53.7464 11.6844
126.918 8.46065 -33.2202
137.944 41.5378 28.6478
141.257 44.9555 3.06255
176.538 30.4031 -22.0722
136.844 68.6034 -0.704019
137.776 53.7841 -0.050862
142.485 48.0359 38.2576
148.849 59.0369 50.8668
166.136 403.954 906.227
169.396 54.4171 4.08483
183.086 438.926 808.593
122.444 59.6568 58.8118
127.302 52.1129 -28.6039
126.353 58 34.4768
167.713 56.3478 9.96603
157.598 77.0449 7.58146
176.095 77.7479 -11.0603
146.229 -79.0423 -469.842
117.92 56.0376 38.3788
122.18 49.1528 -9.27192
162.561 44.1799 9.41765
198.159 23.4773 -55.1555
143.212 61.8928 12.2718
122.975 56.3387 -0.906928
109.962 96.7693 -5.15634
116.32 86.9303 -9.47746
133.9 32.0424 -66.2699
108.322 30.9599 -92.288
174.052 80.768 29.983
183.807 29.844 -17.2071
130.687 67.4644 10.4966
129.88 23.9045 -23.9888
128.785 62.5922 -17.0078
111.222 56.882 -18.0891
150.711 39.8635 -12.0927
160.096 54.0264 -24.2755
179.675 75.8382 38.8847
130.747 50.5958 -14.2567
117.83 61.1059 32.4341
134.911 66.4981 -15.6559
148.901 46.3248 -25.7977
143.259 37.7934 4.58469
141.485 77.9632 79.0433
125.132 55.5048 11.116
122.935 58.3245 -1.35787
138.469 44.4474 7.05785
116.169 91.0181 -5.2577
168.642 78.5399 59.4715
116.844 58.8923 30.3166
130.773 49.9155 7.86453
169.031 51.7642 -13.8832
124.561 52.1863 17.5528
136.166 45.8645 -11.0704
149.478 40.728 8.42442
144.081 44.5314 35.2601
155.664 19.265 1.59789
117.69 58.3298 18.5265
120.776 39.7305 27.8256
121.565 52.8166 27.7627
127.454 65.7341 44.6432
142.777 34.0982 -42.0513
163.189 58.4215 0.0143121
158.377 87.9176 14.5402
149.593 90.2929 -22.9969
162.915 73.4753 54.7813
139.121 35.0558 -57.3389
134.615 41.054 -24.8873
143.405 64.9219 51.0522
169.484 61.5372 14.2515
157.172 106.483 169.116
154.3 125.172 225.77
182.926 338.041 638.352
130.487 60.9305 36.8959
153.778 81.9457 67.7627
-1792.91 -13525.4 -29104
164.467 194.511 327.73
138.667 41.067 -2.67618
115.4 67.1715 23.2704
123.443 62.011 23.3243
150.664 64.6708 52.3198
162.538 62.8993 54.0284
126.92 54.7975 18.6058
